0.000152154,6.78415e-05,-4.18214e-05,0,0,0
7.58154e-05,-5.6404e-06,-1.61913e-05,0,0,0
-0.000108958,2.18585e-05,-1.39209e-05,0,0,0
5.18012e-06,5.28969e-05,-1.48224e-05,0,0,0
-3.07241e-05,-5.30477e-06,-1.45021e-05,0,0,0
7.52374e-05,5.22229e-05,-1.62041e-05,0,0,0
7.14375e-05,6.54046e-05,-4.1701e-05,0,0,0
-7.00884e-05,8.18008e-06,1.09291e-05,0,0,0
4.46151e-05,-4.8442e-06,-1.53811e-05,0,0,0
-1.10183e-06,3.64784e-05,-4.07801e-05,0,0,0
7.06046e-06,5.24872e-05,3.51947e-05,0,0,0
0.000114685,-1.93189e-05,8.65864e-06,0,0,0
-3.13842e-05,3.7916e-05,1.06508e-05,0,0,0
4.05782e-05,6.69683e-05,5.99231e-05,0,0,0
-0.000107723,2.21714e-05,-1.39251e-05,0,0,0
-2.94909e-05,2.37056e-05,8.60894e-05,0,0,0
7.05324e-05,5.09624e-05,-6.69002e-05,0,0,0
4.04157e-05,8.98567e-06,9.65893e-06,0,0,0
0.000111237,9.63042e-05,8.98507e-06,0,0,0
7.91199e-05,3.87216e-05,9.38069e-06,0,0,0
-6.75394e-05,0.000109883,3.61446e-05,0,0,0
-6.98407e-05,-2.05918e-05,1.08915e-05,0,0,0
-6.90192e-05,5.19074e-05,-1.42033e-05,0,0,0
7.33458e-05,-6.26621e-06,-1.61829e-05,0,0,0
-3.2959e-05,-2.09017e-05,-3.99528e-05,0,0,0
3.76888e-06,-5.67552e-06,3.50442e-05,0,0,0
6.90981e-06,3.84412e-05,-3.9854e-05,0,0,0
-0.000105981,-6.08498e-06,-1.35352e-05,0,0,0
1.15177e-05,8.25196e-05,8.59283e-05,0,0,0
-6.91013e-05,3.72648e-05,1.09624e-05,0,0,0
6.3211e-06,-5.36936e-06,3.51237e-05,0,0,0
2.20377e-06,2.31031e-05,3.4998e-05,0,0,0
-4.04661e-05,4.99632e-05,-1.53489e-05,0,0,0
0.000147542,9.61203e-05,8.33397e-06,0,0,0
-7.06664e-05,6.60434e-05,1.09162e-05,0,0,0
7.6898e-05,9.32395e-06,9.35151e-06,0,0,0
-6.17588e-05,-4.7923e-05,1.14363e-05,0,0,0
-0.000101524,2.39474e-05,3.71984e-05,0,0,0
-6.82637e-05,-5.43379e-06,-1.38468e-05,0,0,0
4.37905e-05,2.40537e-05,3.48497e-05,0,0,0
4.15685e-05,-5.34398e-06,3.48205e-05,0,0,0
4.29809e-05,-4.50892e-06,3.516e-05,0,0,0
-2.66759e-05,-6.22205e-05,3.62109e-05,0,0,0
-0.000135206,-4.85659e-06,3.75478e-05,0,0,0
3.34365e-06,2.25742e-05,3.4738e-05,0,0,0
7.0956e-05,5.14103e-05,3.40016e-05,0,0,0
-0.00017804,7.68065e-06,1.22788e-05,0,0,0
-0.000212205,2.26196e-05,3.81248e-05,0,0,0
-2.8832e-05,3.82222e-05,1.07304e-05,0,0,0
-3.36179e-05,-3.54182e-05,3.54062e-05,0,0,0
-1.18387e-06,2.18358e-05,-1.56143e-05,0,0,0
-2.68534e-05,-6.27427e-05,3.58672e-05,0,0,0
0.000152402,-1.86677e-05,8.34703e-06,0,0,0
-6.61357e-05,-3.46153e-05,3.61326e-05,0,0,0
7.88621e-06,-3.41479e-05,3.51699e-05,0,0,0
-3.59235e-05,-6.7589e-06,-1.4917e-05,0,0,0
-0.000138924,2.29676e-05,-1.31148e-05,0,0,0
-0.000281202,-7.83127e-05,1.40228e-05,0,0,0
9.29744e-06,2.44244e-05,-1.46966e-05,0,0,0
-3.31236e-05,-3.52246e-05,-1.4875e-05,0,0,0
-0.000179522,-2.15977e-05,6.25265e-05,0,0,0
-3.33563e-05,-6.39132e-05,-6.47579e-05,0,0,0
-0.000142314,6.53601e-05,1.16148e-05,0,0,0
7.32324e-06,-3.37451e-05,-1.47633e-05,0,0,0
-0.000176805,7.99355e-06,1.22746e-05,0,0,0
-0.000103028,-6.41643e-05,-1.37865e-05,0,0,0
-0.00021237,8.29672e-06,6.32026e-05,0,0,0
-6.57936e-05,-1.97702e-05,1.13985e-05,0,0,0
-0.000139745,-4.95315e-05,1.198e-05,0,0,0
-0.000143286,-2.11851e-05,-3.8339e-05,0,0,0
-3.35359e-05,-2.07756e-05,1.02404e-05,0,0,0
-6.57115e-05,-5.12763e-06,-1.37673e-05,0,0,0
8.06371e-06,-3.36258e-05,3.55136e-05,0,0,0
0.0001161,-6.21435e-05,-6.63438e-05,0,0,0
5.49858e-06,-2.01312e-05,1.00125e-05,0,0,0
7.32324e-06,-3.37451e-05,-1.47633e-05,0,0,0
4.33814e-05,-6.28944e-05,3.48291e-05,0,0,0
1.00379e-05,2.45437e-05,3.55804e-05,0,0,0
-0.000103015,-7.79651e-05,1.1635e-05,0,0,0
-0.000177876,2.20036e-05,-1.2799e-05,0,0,0
9.62771e-06,-4.66706e-06,-1.46462e-05,0,0,0
-6.40762e-05,-6.32002e-05,-1.41023e-05,0,0,0
-6.90981e-05,-6.41322e-05,-1.41735e-05,0,0,0
5.58063e-06,-5.48864e-06,-1.51532e-05,0,0,0
-0.000100863,-1.92734e-05,1.20454e-05,0,0,0
-6.91131e-05,-6.67173e-06,3.5747e-05,0,0,0
-7.26524e-05,-3.60626e-05,3.5634e-05,0,0,0
-0.000139745,-4.95315e-05,1.198e-05,0,0,0
-0.000135781,-4.83903e-05,1.2399e-05,0,0,0
-2.8914e-05,2.35796e-05,3.58962e-05,0,0,0
-6.48065e-05,9.31456e-06,1.14319e-05,0,0,0
-0.00017944,-6.95517e-06,3.73608e-05,0,0,0
-6.30054e-05,-9.21724e-05,3.6225e-05,0,0,0
-2.68416e-05,-1.88061e-05,1.10827e-05,0,0,0
-2.98191e-05,9.13743e-06,1.0697e-05,0,0,0
-2.80883e-05,-6.30556e-05,3.58714e-05,0,0,0
4.32157e-05,-1.948e-05,9.70093e-06,0,0,0
-2.78298e-05,9.84647e-06,-3.91567e-05,0,0,0
-0.000139815,-2.02375e-05,1.23612e-05,0,0,0
-6.73705e-05,-3.49282e-05,3.61368e-05,0,0,0
-0.000102276,-2.01085e-05,1.17059e-05,0,0,0
-6.4971e-05,-5.00835e-06,3.65097e-05,0,0,0
0.000119721,-4.71498e-05,5.94051e-05,0,0,0
-0.000181757,-2.22324e-05,1.18221e-05,0,0,0
-0.00014445,-5.0792e-05,-3.8716e-05,0,0,0
-0.000214932,-7.96057e-05,1.25656e-05,0,0,0
-0.00021064,-6.15896e-06,3.8171e-05,0,0,0
-0.000105911,-3.5379e-05,-1.39165e-05,0,0,0
-3.53337e-05,-2.06857e-05,-3.96887e-05,0,0,0
-0.000104349,3.72395e-05,1.12657e-05,0,0,0
8.06471e-07,-3.51925e-05,-1.5262e-05,0,0,0
-6.33239e-05,-1.91444e-05,1.13901e-05,0,0,0
2.78068e-06,2.2977e-05,-1.51952e-05,0,0,0
-0.000141145,-6.41673e-05,3.7062e-05,0,0,0
2.9614e-06,-7.78978e-05,-3.99875e-05,0,0,0
-2.8254e-05,-1.96412e-05,1.07432e-05,0,0,0
-2.70041e-05,-7.67887e-05,-3.91814e-05,0,0,0
-2.82411e-05,-3.34419e-05,3.61647e-05,0,0,0
1.95816e-06,8.2152e-06,-4.03064e-05,0,0,0
-6.91013e-05,3.72648e-05,1.09624e-05,0,0,0
3.85107e-05,-2.07405e-05,-4.09951e-05,0,0,0
-0.000103429,-5.77882e-06,-1.34556e-05,0,0,0
-0.000103853,-3.52664e-05,3.64443e-05,0,0,0
-0.000105993,-5.00215e-05,1.12493e-05,0,0,0
-3.36061e-05,8.51836e-06,1.06216e-05,0,0,0
-2.89826e-05,2.41761e-05,-6.43183e-05,0,0,0
-0.00010524,-5.9657e-06,3.67417e-05,0,0,0
-6.72928e-05,0.000138849,-1.4099e-05,0,0,0
1.95816e-06,8.2152e-06,-4.03064e-05,0,0,0
5.16831e-06,8.96029e-06,9.96215e-06,0,0,0
6.49749e-06,5.28901e-05,-1.47386e-05,0,0,0
-0.000141311,3.69844e-05,-3.82722e-05,0,0,0
0.000149933,-1.92935e-05,8.35542e-06,0,0,0
3.78667e-05,-9.27175e-05,-1.55566e-05,0,0,0
-7.00063e-05,2.28226e-05,-1.42367e-05,0,0,0
-5.94056e-07,7.90904e-06,-4.0386e-05,0,0,0
1.14373e-05,3.91795e-05,1.04984e-05,0,0,0
7.42503e-05,2.31382e-05,-1.62375e-05,0,0,0
-6.4984e-05,8.7924e-06,1.10882e-05,0,0,0
-7.15715e-05,5.16012e-05,-1.42829e-05,0,0,0
4.56022e-05,2.42406e-05,-1.53477e-05,0,0,0
-0.000106158,-6.60714e-06,-1.38789e-05,0,0,0
-0.00024984,3.6611e-05,1.32707e-05,0,0,0
3.9345e-05,3.79579e-05,-4.06684e-05,0,0,0
0.000145637,6.63941e-05,-4.23201e-05,0,0,0
-0.0001059,3.72551e-05,6.18947e-05,0,0,0
-7.22433e-05,5.08854e-05,3.56546e-05,0,0,0
-0.000104018,8.14796e-06,1.13161e-05,0,0,0
7.41683e-05,8.49563e-06,8.92825e-06,0,0,0
-0.000148815,6.45226e-06,-3.88043e-05,0,0,0
-6.78664e-05,3.75777e-05,1.09582e-05,0,0,0
3.43751e-06,8.11533e-05,-1.52122e-05,0,0,0
4.04978e-05,2.36282e-05,-1.55068e-05,0,0,0
2.20589e-06,-2.05566e-05,-4.0344e-05,0,0,0
-3.1396e-05,-6.02055e-06,3.54353e-05,0,0,0
4.93201e-05,-3.58369e-06,3.5315e-05,0,0,0
-3.09719e-05,2.34671e-05,-1.44646e-05,0,0,0
-0.000139336,3.74166e-05,1.20005e-05,0,0,0
-7.07468e-05,2.27034e-05,-6.45137e-05,0,0,0
-0.000106902,9.46706e-05,-3.90199e-05,0,0,0
-0.000145768,-5.07853e-05,-3.87998e-05,0,0,0
-3.29611e-05,2.2758e-05,3.53891e-05,0,0,0
-3.11365e-05,9.14417e-06,1.06133e-05,0,0,0
-7.22283e-05,-6.57502e-06,-1.42659e-05,0,0,0
4.59242e-06,2.31639e-05,-6.53926e-05,0,0,0
4.32157e-05,-1.948e-05,9.70093e-06,0,0,0
5.24925e-06,8.13402e-05,-6.54096e-05,0,0,0
-7.15844e-05,6.5402e-05,-3.97044e-05,0,0,0
-6.94283e-05,-3.50407e-05,-1.42239e-05,0,0,0
3.27341e-06,5.18682e-05,3.51193e-05,0,0,0
-3.05595e-05,9.01814e-06,-3.95799e-05,0,0,0
6.49749e-06,5.28901e-05,-1.47386e-05,0,0,0
-0.000106406,2.21647e-05,-1.38413e-05,0,0,0
-3.39364e-05,3.76099e-05,1.05713e-05,0,0,0
5.18334e-06,-4.85002e-05,-3.99583e-05,0,0,0
-0.000176216,-5.93322e-06,-1.24971e-05,0,0,0
5.66426e-06,-6.35456e-05,3.51407e-05,0,0,0
-6.91817e-05,-6.07524e-06,-6.44675e-05,0,0,0
4.34579e-06,-5.80155e-06,-1.5149e-05,0,0,0
-2.81719e-05,-4.9986e-06,-1.44225e-05,0,0,0
-0.000106406,2.21647e-05,-1.38413e-05,0,0,0
-6.57233e-05,-4.90642e-05,1.10173e-05,0,0,0
-6.92638e-05,-2.07178e-05,-3.93017e-05,0,0,0
2.94636e-06,-2.04374e-05,9.93297e-06,0,0,0
-0.000104593,-3.53857e-05,-1.38327e-05,0,0,0
-0.000106158,-6.60714e-06,-1.38789e-05,0,0,0
-2.9737e-05,2.378e-05,-1.44687e-05,0,0,0
-3.62517e-05,-2.13271e-05,-9.03093e-05,0,0,0
-6.86069e-05,3.74584e-05,-3.93187e-05,0,0,0
7.62278e-05,-2.00893e-05,-4.13067e-05,0,0,0
-0.000144615,-6.51149e-05,-1.36382e-05,0,0,0
-0.000105569,-2.05339e-05,-3.86506e-05,0,0,0
-6.52301e-05,8.86674e-06,-8.94699e-05,0,0,0
-6.72895e-05,3.74517e-05,-3.92349e-05,0,0,0
-0.000142641,-6.94542e-06,-1.35715e-05,0,0,0
-6.41464e-05,-3.39062e-05,-1.37211e-05,0,0,0
-0.00014445,-5.0792e-05,-3.8716e-05,0,0,0
4.53556e-05,-4.72491e-06,3.48959e-05,0,0,0
-2.94068e-05,-5.31151e-06,-1.44184e-05,0,0,0
-9.96405e-05,-6.28971e-05,3.68258e-05,0,0,0
9.46313e-06,-1.899e-05,1.04316e-05,0,0,0
-3.06432e-05,6.70751e-05,-8.98739e-05,0,0,0
2.61821e-06,-3.50056e-05,-6.54594e-05,0,0,0
-3.05595e-05,9.01814e-06,-3.95799e-05,0,0,0
8.47603e-06,-4.80747e-05,1.03982e-05,0,0,0
6.74523e-06,2.41183e-05,-1.47762e-05,0,0,0
8.31034e-06,-4.66032e-06,-1.473e-05,0,0,0
-0.00018018,-7.07445e-06,-1.29162e-05,0,0,0
-3.47707e-05,-2.10886e-05,1.02446e-05,0,0,0
-0.000102359,3.79485e-05,-3.8588e-05,0,0,0
-3.07241e-05,-5.30477e-06,-1.45021e-05,0,0,0
-0.000138842,3.76102e-05,-3.82806e-05,0,0,0
-0.000173581,9.0155e-06,-3.75833e-05,0,0,0
-0.000144452,-7.1323e-06,3.66259e-05,0,0,0
-0.000102194,-5.46591e-06,-1.34598e-05,0,0,0
4.34579e-06,-5.80155e-06,-1.5149e-05,0,0,0
-3.01461e-05,-6.31681e-05,-1.44893e-05,0,0,0
-0.000101946,-3.42378e-05,-1.34974e-05,0,0,0
-6.91817e-05,-6.07524e-06,-6.44675e-05,0,0,0
7.73924e-05,9.51757e-06,-4.09296e-05,0,0,0
-3.05595e-05,9.01814e-06,-3.95799e-05,0,0,0
-9.98882e-05,-3.41252e-05,3.68633e-05,0,0,0
-0.000140077,3.72973e-05,-3.82764e-05,0,0,0
-6.68632e-05,-4.85353e-05,1.12772e-05,0,0,0
7.20975e-05,2.21838e-05,-6.6854e-05,0,0,0
-0.000179123,-7.28371e-06,-1.32641e-05,0,0,0
-0.000173663,-5.62706e-06,-1.24175e-05,0,0,0
6.73342e-06,-1.98183e-05,1.00084e-05,0,0,0
-0.000105336,8.1547e-06,1.12323e-05,0,0,0
-6.84412e-05,-5.95595e-06,-1.41905e-05,0,0,0
-3.37718e-05,5.19328e-05,-1.45066e-05,0,0,0
-7.35586e-05,7.23247e-06,-3.97712e-05,0,0,0
-7.14187e-05,2.19876e-05,-1.45762e-05,0,0,0
-0.000215498,2.21942e-05,-1.22317e-05,0,0,0
-0.000103265,-5.53351e-06,8.70145e-05,0,0,0
-3.1959e-05,-5.61767e-06,-1.44979e-05,0,0,0
-3.49246e-05,6.62624e-05,-3.96681e-05,0,0,0
8.72266e-06,-1.91093e-05,-3.98453e-05,0,0,0
7.73344e-06,-4.53429e-06,3.54632e-05,0,0,0
-3.38522e-05,8.5927e-06,-8.99365e-05,0,0,0
3.7686e-05,8.15735e-06,9.23567e-06,0,0,0
7.32324e-06,-3.37451e-05,-1.47633e-05,0,0,0
4.15685e-05,-5.34398e-06,3.48205e-05,0,0,0
0.000116262,-4.16089e-06,-1.60797e-05,0,0,0
-3.2537e-05,5.22457e-05,-1.45108e-05,0,0,0
-0.000141476,2.26615e-05,-1.31944e-05,0,0,0
1.18626e-05,1.09298e-05,1.08045e-05,0,0,0
-6.36553e-05,6.76844e-05,-3.88663e-05,0,0,0
7.81328e-05,9.63686e-06,9.34732e-06,0,0,0
7.78047e-05,-4.93136e-06,-6.6045e-05,0,0,0
-0.000142463,-6.42326e-06,-1.32278e-05,0,0,0
-2.8832e-05,3.82222e-05,1.07304e-05,0,0,0
-3.47589e-05,2.2848e-05,-1.45399e-05,0,0,0
-0.000139899,3.78195e-05,-3.79327e-05,0,0,0
-0.000105746,-2.10561e-05,-3.89943e-05,0,0,0
-6.98418e-05,3.71455e-05,-3.93145e-05,0,0,0
-6.86879e-05,-3.49214e-05,3.60531e-05,0,0,0
3.93347e-06,8.64739e-06,9.96635e-06,0,0,0
-2.84197e-05,2.37732e-05,-1.4385e-05,0,0,0
3.95911e-05,3.78835e-05,5.98897e-05,0,0,0
3.02731e-06,5.19425e-05,-6.54388e-05,0,0,0
-0.000104416,-3.48636e-05,-1.3489e-05,0,0,0
5.91948e-06,0.000110753,-1.47514e-05,0,0,0
7.62278e-05,-2.00893e-05,-4.13067e-05,0,0,0
4.0486e-05,-2.03083e-05,9.27767e-06,0,0,0
-6.41464e-05,-3.39062e-05,-1.37211e-05,0,0,0
3.98528e-05,9.38855e-06,-4.02743e-05,0,0,0
-2.98191e-05,9.13743e-06,1.0697e-05,0,0,0
-7.1831e-05,3.64365e-05,1.05392e-05,0,0,0
-6.90981e-05,-6.41322e-05,-1.41735e-05,0,0,0
0.00011271,-1.97511e-05,-4.16141e-05,0,0,0
-3.15478e-05,3.76707e-05,-8.98193e-05,0,0,0
-0.00010244,-3.44314e-05,3.67837e-05,0,0,0
4.305e-05,2.39344e-05,-1.54273e-05,0,0,0
-3.49353e-05,-3.54115e-05,3.53224e-05,0,0,0
-7.28883e-05,3.66458e-05,1.08871e-05,0,0,0
-3.45241e-05,7.87692e-06,-3.9999e-05,0,0,0
2.37158e-06,-6.39711e-05,-1.52158e-05,0,0,0
3.60532e-06,-5.92083e-06,-6.5426e-05,0,0,0
3.85305e-06,-3.46927e-05,-6.54636e-05,0,0,0
8.47603e-06,-4.80747e-05,1.03982e-05,0,0,0
8.14576e-06,-1.89832e-05,1.03478e-05,0,0,0
3.69455e-05,8.03806e-06,-4.10413e-05,0,0,0
7.978e-05,-4.49917e-06,-1.57723e-05,0,0,0
3.193e-06,8.5281e-06,-4.03106e-05,0,0,0
-7.19817e-05,2.23904e-05,-6.45095e-05,0,0,0
-3.35359e-05,-2.07756e-05,1.02404e-05,0,0,0
-3.08062e-05,-1.99473e-05,1.06636e-05,0,0,0
9.13608e-06,-9.12955e-05,-1.47547e-05,0,0,0
-0.000138673,-0.000107201,-3.82884e-05,0,0,0
-0.000248687,2.22813e-05,3.84323e-05,0,0,0
-0.000179768,-2.15234e-05,-3.80316e-05,0,0,0
3.94989e-05,-4.93931e-05,9.24429e-06,0,0,0
2.38229e-06,3.77028e-05,-9.02063e-05,0,0,0
1.05421e-06,-6.39643e-05,-1.52996e-05,0,0,0
8.0685e-05,9.94302e-06,9.42689e-06,0,0,0
-2.87456e-05,-0.00010627,1.06347e-05,0,0,0
-0.000101289,8.97628e-06,1.17393e-05,0,0,0
-0.000105156,-3.49829e-05,-6.3766e-05,0,0,0
6.56773e-06,2.35961e-05,-1.51198e-05,0,0,0
-0.000104251,-2.05407e-05,-3.85668e-05,0,0,0
1.86271e-06,2.23356e-05,-6.58159e-05,0,0,0
8.13451e-05,-3.32778e-05,-1.57261e-05,0,0,0
-6.57115e-05,-5.12763e-06,-1.37673e-05,0,0,0
6.40784e-07,8.22194e-06,-4.03902e-05,0,0,0
-6.68761e-05,-3.47345e-05,-1.41443e-05,0,0,0
-2.61945e-05,-4.82261e-05,-3.94917e-05,0,0,0
7.89802e-06,9.78862e-06,1.03854e-05,0,0,0
4.01764e-06,-2.03698e-05,-9.05414e-05,0,0,0
-0.000103016,-2.02278e-05,-3.8571e-05,0,0,0
-2.95724e-05,3.81029e-05,-3.95466e-05,0,0,0
7.32324e-06,-3.37451e-05,-1.47633e-05,0,0,0
7.73924e-05,9.51757e-06,-4.09296e-05,0,0,0
-3.1959e-05,-5.61767e-06,-1.44979e-05,0,0,0
-0.000210476,2.31262e-05,-1.21605e-05,0,0,0
-6.8438e-05,-0.000107353,-3.93265e-05,0,0,0
-3.56769e-05,2.22066e-05,-6.51606e-05,0,0,0
-3.01461e-05,-6.31681e-05,-1.44893e-05,0,0,0
-3.05595e-05,9.01814e-06,-3.95799e-05,0,0,0
6.17045e-06,-1.94154e-05,-3.99249e-05,0,0,0
-0.000251402,-3.60074e-05,-1.19115e-05,0,0,0
-6.78643e-05,-6.08198e-06,-6.43837e-05,0,0,0
4.37219e-05,2.46502e-05,-6.53647e-05,0,0,0
-2.63602e-05,-4.81173e-06,-6.46199e-05,0,0,0
4.06624e-05,3.79511e-05,-4.05847e-05,0,0,0
-3.62517e-05,-2.13271e-05,-9.03093e-05,0,0,0
0.000151249,5.33993e-05,-6.70206e-05,0,0,0
4.90132e-07,-5.82412e-06,-0.000115439,0,0,0
4.10758e-05,-3.42351e-05,-1.5494e-05,0,0,0
-0.000211381,-6.27825e-06,-1.21059e-05,0,0,0
4.20779e-05,-6.26108e-05,-6.53811e-05,0,0,0
-0.000179686,-6.88083e-06,-6.31973e-05,0,0,0
-3.47589e-05,2.2848e-05,-1.45399e-05,0,0,0
8.96929e-06,9.85621e-06,-9.00889e-05,0,0,0
0.000112958,-4.85229e-05,-4.16517e-05,0,0,0
0.000111145,9.02753e-06,-4.16603e-05,0,0,0
7.15865e-06,-4.8068e-05,1.03145e-05,0,0,0
-2.75821e-05,-1.89254e-05,-3.91942e-05,0,0,0
-0.000175391,-3.48311e-05,-6.27279e-05,0,0,0
-0.000135219,8.94416e-06,1.21263e-05,0,0,0
7.93698e-05,-3.371e-05,-6.59988e-05,0,0,0
-0.000100632,6.71525e-05,1.17223e-05,0,0,0
4.70178e-05,-7.63214e-05,-4.01441e-05,0,0,0
-0.00017524,-2.0785e-05,1.23208e-05,0,0,0
-2.70191e-05,-1.93283e-05,1.0739e-05,0,0,0
0.000113122,-3.42e-05,-6.67295e-05,0,0,0
-6.63818e-05,-3.45409e-05,-6.44255e-05,0,0,0
-2.03249e-05,-1.73587e-05,1.15814e-05,0,0,0
-6.52992e-05,-1.95766e-05,-3.88826e-05,0,0,0
-0.000215263,7.22308e-06,-3.76908e-05,0,0,0
9.38272e-06,-6.233e-05,-6.49983e-05,0,0,0
-2.62647e-05,-1.89321e-05,-3.91105e-05,0,0,0
-3.02293e-05,-2.00734e-05,-3.95295e-05,0,0,0
-0.00014131,-2.07529e-05,1.19338e-05,0,0,0
7.72267e-05,5.2932e-05,-6.60578e-05,0,0,0
-0.000141723,-6.30398e-06,3.70492e-05,0,0,0
-0.00017878,-5.01759e-05,1.22078e-05,0,0,0
7.89575e-05,-1.9261e-05,-4.08834e-05,0,0,0
-2.6595e-05,1.01594e-05,-3.91609e-05,0,0,0
-6.05867e-07,-3.60275e-05,-1.56015e-05,0,0,0
5.84066e-06,-5.28613e-06,-1.47216e-05,0,0,0
7.52525e-05,-5.23753e-06,-6.61246e-05,0,0,0
-0.000209571,3.75683e-05,1.30386e-05,0,0,0
-2.75821e-05,-1.89254e-05,-3.91942e-05,0,0,0
-6.56413e-05,-3.44216e-05,-1.41485e-05,0,0,0
4.23095e-05,2.38151e-05,-6.57042e-05,0,0,0
-0.000141229,5.1627e-05,-6.3438e-05,0,0,0
-2.79242e-05,-3.37704e-05,-1.44601e-05,0,0,0
4.59242e-06,2.31639e-05,-6.53926e-05,0,0,0
-3.31118e-05,8.71198e-06,-3.96595e-05,0,0,0
4.3628e-05,-3.39289e-05,-1.54144e-05,0,0,0
-3.01472e-05,-5.43079e-06,-6.46953e-05,0,0,0
-3.31118e-05,8.71198e-06,-3.96595e-05,0,0,0
-2.89113e-05,-6.28552e-05,-1.44935e-05,0,0,0
-0.000175406,2.26294e-05,-1.28074e-05,0,0,0
-3.08877e-05,-5.55008e-06,-0.000114972,0,0,0
1.62789e-06,3.73067e-05,-4.03568e-05,0,0,0
-6.8689e-05,2.28159e-05,-1.41529e-05,0,0,0
-0.000106336,-7.1293e-06,-1.42226e-05,0,0,0
0.000110897,3.77994e-05,-4.16228e-05,0,0,0
-0.000105418,-6.48786e-06,3.63981e-05,0,0,0
-0.000175229,2.31515e-05,-1.24637e-05,0,0,0
3.69455e-05,8.03806e-06,-4.10413e-05,0,0,0
7.76272e-05,-5.45352e-06,-6.63887e-05,0,0,0
8.72266e-06,-1.91093e-05,-3.98453e-05,0,0,0
-0.000104499,2.31934e-05,-6.3783e-05,0,0,0
6.58277e-06,-3.38644e-05,-6.50403e-05,0,0,0
-0.000145441,2.15203e-05,-1.36135e-05,0,0,0
-3.13e-05,8.89886e-06,-8.98569e-05,0,0,0
7.89575e-05,-1.9261e-05,-4.08834e-05,0,0,0
-0.000175984,8.04927e-05,-1.28202e-05,0,0,0
-0.000314956,-2.00854e-05,-3.54525e-05,0,0,0
-0.000278884,-3.39957e-05,-0.00011124,0,0,0
-0.00038519,-1.99336e-05,-3.44144e-05,0,0,0
-0.000301262,-6.04114e-05,-5.96082e-05,0,0,0
-0.000412591,-3.23191e-05,-8.1073e-06,0,0,0
-0.000519623,-7.58368e-05,-3.14789e-05,0,0,0
-0.000519869,-0.000104802,1.87647e-05,0,0,0
-0.000556669,-4.70747e-05,1.94909e-05,0,0,0
-0.00044633,-6.0592e-05,4.32986e-05,0,0,0
-0.000519859,-3.21682e-05,9.45759e-05,0,0,0
-0.000659422,-7.51598e-05,0.000172057,0,0,0
-0.000656858,-3.09171e-05,0.000147352,0,0,0
-0.00069655,-8.97378e-05,0.000147597,0,0,0
-0.000661649,5.45769e-05,0.000146958,0,0,0
-0.000657928,-7.46444e-05,0.000172485,0,0,0
-0.000620636,-4.57435e-05,0.000171867,0,0,0
-0.000728987,-4.55948e-05,0.000223754,0,0,0
-0.000805327,-3.60202e-06,0.000148972,0,0,0
-0.000868054,-0.000132052,0.000175612,0,0,0
-0.000582344,-1.55864e-06,0.000196704,0,0,0
-0.000836361,-0.000103958,0.000225116,0,0,0
-0.000799635,2.67432e-05,0.000199701,0,0,0
-0.000906254,-8.89607e-05,0.00020142,0,0,0
-0.000799895,1.15785e-05,0.000224523,0,0,0
-0.0007266,-1.8742e-06,0.000198705,0,0,0
-0.000728094,-7.50891e-05,0.000273737,0,0,0
-0.000835539,-3.14584e-05,0.000200021,0,0,0
-0.000765717,-1.71612e-05,0.000224099,0,0,0
-0.000765482,-3.21323e-05,0.000198639,0,0,0
-0.000807399,-1.89536e-05,0.000223991,0,0,0
-0.000586721,1.17491e-05,0.0002214,0,0,0
-0.000913128,-4.77927e-05,0.000275576,0,0,0
-0.000838847,2.55766e-05,0.000199585,0,0,0
-0.000664047,-3.30803e-05,0.000196791,0,0,0
-0.000809224,9.62246e-06,0.000223513,0,0,0
-0.000696152,-4.67262e-05,0.000172402,0,0,0
-0.000631038,6.77074e-05,0.000170919,0,0,0
-0.000630873,2.4293e-05,0.000196048,0,0,0
-0.000666765,1.0028e-05,0.000171583,0,0,0
-0.000628647,-4.77063e-05,0.000170941,0,0,0
-0.000521039,-4.31465e-06,0.000144119,0,0,0
-0.000601577,-6.22935e-06,0.000144583,0,0,0
-0.000559909,9.36381e-06,0.000119269,0,0,0
-0.000594073,2.43028e-05,0.000145115,0,0,0
-0.000452945,3.85158e-05,6.76802e-05,0,0,0
-0.000490252,6.70754e-05,0.000118218,0,0,0
-0.000529614,5.18627e-05,4.30539e-05,0,0,0
-0.000492735,9.52125e-05,6.75515e-05,0,0,0
-0.000314135,2.3374e-05,9.02543e-05,0,0,0
-0.000677261,9.39396e-05,6.97844e-05,0,0,0
-0.000458736,0.000123688,1.65773e-05,0,0,0
-0.000527474,6.66178e-05,6.82488e-05,0,0,0
-0.0005269,0.000110152,9.33976e-05,0,0,0
-0.000601249,3.73787e-05,6.9174e-05,0,0,0
-0.000529864,0.000124294,0.000118433,0,0,0
-0.000460053,0.000123695,1.64935e-05,0,0,0
-0.000420444,0.000167873,4.14144e-05,0,0,0
-0.000561897,3.76946e-05,1.83213e-05,0,0,0
-0.000383301,0.00012499,1.5954e-05,0,0,0
-0.000426297,2.18076e-05,-9.37313e-06,0,0,0
-0.000602002,5.10601e-05,-6.52449e-06,0,0,0
-0.000603319,5.10669e-05,-6.60826e-06,0,0,0
-0.000490662,5.28268e-05,4.27381e-05,0,0,0
-0.000527076,8.09318e-05,-7.54179e-06,0,0,0
-0.000425722,6.53413e-05,1.57756e-05,0,0,0
-0.000495876,0.000137873,-5.85581e-05,0,0,0
-0.000497933,6.50609e-05,-3.3459e-05,0,0,0
-0.000352017,9.5177e-05,-8.53639e-05,0,0,0
-0.000528051,9.57837e-05,-3.23597e-05,0,0,0
-0.000452876,8.19213e-05,-8.16082e-06,0,0,0
-0.00049752,5.0612e-05,-5.85744e-05,0,0,0
-0.000527146,0.000110226,-7.16053e-06,0,0,0
-0.000599945,6.61349e-05,1.85825e-05,0,0,0
-0.00049999,6.49484e-05,-8.38198e-05,0,0,0
-0.000604155,6.5068e-05,-8.23947e-05,0,0,0
-0.000493886,8.08447e-05,-5.82057e-05,0,0,0
-0.000678425,9.33725e-05,-8.13944e-05,0,0,0
-0.000381817,5.28717e-05,-5.94297e-05,0,0,0
-0.00053252,2.18147e-05,-5.83088e-05,0,0,0
-0.000491743,-5.79725e-06,-5.81467e-05,0,0,0
-0.000570307,5.04576e-05,-5.76159e-05,0,0,0
-0.000457744,2.26782e-05,-0.000109121,0,0,0
-0.00063773,6.60802e-05,-8.13203e-05,0,0,0
-0.000451805,8.19889e-05,-0.000108635,0,0,0
-0.000599616,0.000109743,-5.68268e-05,0,0,0
-0.000637908,6.5558e-05,-8.1664e-05,0,0,0
-0.000527404,6.63636e-05,-8.29341e-05,0,0,0
-0.000783576,6.6701e-06,-2.97967e-05,0,0,0
-0.000530133,6.55353e-05,-8.33574e-05,0,0,0
-0.000600765,2.26755e-05,-0.000107124,0,0,0
-0.000600108,6.58896e-05,-8.18876e-05,0,0,0
-0.000493639,0.00010981,-0.000108449,0,0,0
-0.000564708,5.12635e-05,-0.000107738,0,0,0
-0.000598213,2.29817e-05,-0.000107045,0,0,0
-0.000635274,8.05068e-05,-0.00010675,0,0,0
-0.000713657,3.58867e-05,-0.000131012,0,0,0
-0.000594909,6.73437e-05,-8.14728e-05,0,0,0
-0.000742718,5.1438e-05,-0.000105006,0,0,0
-0.000744707,5.0729e-05,-5.51527e-05,0,0,0
-0.000739082,8.97119e-06,-2.9178e-05,0,0,0
-0.000667696,6.71893e-05,-8.05142e-05,0,0,0
-0.000818151,-7.6017e-06,-5.41772e-05,0,0,0
-0.00067133,3.69566e-05,-8.08829e-05,0,0,0
-0.000773508,8.1445e-05,-5.39696e-05,0,0,0
-0.000886234,5.12417e-05,-5.27286e-05,0,0,0
-0.000734061,6.76405e-05,-7.93128e-05,0,0,0
-0.000815425,0.000152361,-7.8824e-05,0,0,0
-0.000848776,3.67282e-05,-2.82182e-05,0,0,0
-0.0009204,0.000123918,-7.70886e-05,0,0,0
-0.000918997,3.71568e-05,-0.000127307,0,0,0
-0.000854869,6.47684e-05,-7.86167e-05,0,0,0
-0.00102134,5.23601e-05,-5.00616e-05,0,0,0
-0.000954974,5.19089e-05,-5.12631e-05,0,0,0
-0.000847281,3.72436e-05,-2.77907e-05,0,0,0
-0.000948951,5.31627e-05,-4.83278e-07,0,0,0
-0.00102546,8.08325e-05,-5.01874e-05,0,0,0
-0.000953821,3.75792e-05,-2.61015e-05,0,0,0
-0.00102274,0.000139121,1.56311e-07,0,0,0
-0.000947058,6.79921e-05,-7.58464e-05,0,0,0
-0.00113407,6.58165e-05,2.65213e-05,0,0,0
-0.000986012,0.000110688,-1.88679e-07,0,0,0
-0.00105649,3.82143e-05,-2.42489e-05,0,0,0
-0.0011301,6.69578e-05,2.69403e-05,0,0,0
-0.00102381,3.76567e-05,7.54947e-05,0,0,0
-0.001022,3.78435e-05,2.52973e-05,0,0,0
-0.00102439,0.000153257,2.52759e-05,0,0,0
-0.0011679,5.1664e-05,5.24177e-05,0,0,0
-0.0011315,0.000110059,1.81633e-06,0,0,0
-0.00108934,9.68062e-05,7.70228e-05,0,0,0
-0.00112532,6.78986e-05,7.77243e-05,0,0,0
-0.00113002,6.66381e-05,2.70283e-05,0,0,0
-0.00116831,6.6113e-05,7.75331e-05,0,0,0
-0.00127363,8.05622e-05,5.37966e-05,0,0,0
-0.00116484,6.70606e-05,0.000128233,0,0,0
-0.00127296,0.000109976,0.000104455,0,0,0
-0.0013063,9.60166e-05,8.00701e-05,0,0,0
-0.00127255,9.55266e-05,7.93395e-05,0,0,0
-0.00133998,6.72127e-05,8.04196e-05,0,0,0
-0.00123508,6.72123e-05,0.000129271,0,0,0
-0.00126784,-4.60991e-06,0.0001049,0,0,0
-0.00137481,0.000125372,0.000131419,0,0,0
-0.00138075,0.000123799,8.07267e-05,0,0,0
-0.00126917,0.000110595,0.00010453,0,0,0
-0.0013049,5.29151e-05,0.000105194,0,0,0
-0.001449,0.00016832,0.000107253,0,0,0
-0.00138239,8.01977e-05,0.000156052,0,0,0
-0.00152328,9.49502e-05,0.000183244,0,0,0
-0.00134056,5.23765e-05,0.000155866,0,0,0
-0.00151874,9.59654e-05,0.00013347,0,0,0
-0.00148276,6.71357e-05,0.000182974,0,0,0
-0.00144825,9.30447e-06,0.0001826,0,0,0
-0.00144735,8.1484e-05,0.000157593,0,0,0
-0.0014429,3.88823e-05,0.000132516,0,0,0
-0.00133635,8.24832e-05,0.000106042,0,0,0
-0.0014055,3.9862e-05,0.000182829,0,0,0
-0.00137316,3.85369e-05,0.000181759,0,0,0
-0.00148011,0.000111059,0.000158357,0,0,0
-0.00151899,2.30634e-05,0.000208498,0,0,0
-0.00148102,9.66166e-05,0.000133158,0,0,0
-0.00159037,8.14813e-05,0.00015959,0,0,0
-0.00148069,6.75251e-05,0.000133209,0,0,0
-0.00166283,5.22354e-05,0.000160599,0,0,0
-0.0016214,3.88631e-05,0.000185528,0,0,0
-0.00155711,8.07977e-05,0.00020914,0,0,0
-0.00169659,0.000110186,0.00021125,0,0,0
-0.00166192,8.94031e-06,0.000236004,0,0,0
-0.00162248,9.65328e-05,0.000235797,0,0,0
-0.00173282,0.00011005,0.000211989,0,0,0
-0.00155414,0.000110591,0.00015932,0,0,0
-0.00169172,2.43723e-05,0.000211732,0,0,0
-0.00165606,8.26483e-05,0.000110854,0,0,0
-0.00157923,0.000127284,0.000185744,0,0,0
-0.00151148,9.75321e-05,0.000184245,0,0,0
-0.00165888,0.000110837,0.000210938,0,0,0
-0.00158395,8.20869e-05,0.000159833,0,0,0
-0.0016587,6.76996e-05,0.00013594,0,0,0
-0.00168901,8.26611e-05,0.000262076,0,0,0
-0.00173413,6.63972e-05,0.000136563,0,0,0
-0.00169164,3.90149e-05,0.000186566,0,0,0
-0.00176336,6.76256e-05,0.000187646,0,0,0
-0.0018359,3.86993e-05,0.000188567,0,0,0
-0.00190366,2.45147e-05,0.000214851,0,0,0
-0.00176054,8.30965e-05,0.000162904,0,0,0
-0.00183086,6.86057e-05,0.000189108,0,0,0
-0.00168799,9.8222e-05,0.000187404,0,0,0
-0.00190959,9.14053e-06,0.00018958,0,0,0
-0.00194533,8.92153e-06,0.000240165,0,0,0
-0.00183325,0.000126282,0.000239292,0,0,0
-0.00179084,4.05975e-05,0.000239119,0,0,0
-0.00194302,3.79995e-05,0.000240282,0,0,0
-0.0019742,6.89316e-05,0.000241729,0,0,0
-0.00193782,-1.82836e-05,0.000290903,0,0,0
-0.00193649,2.56462e-05,0.000266202,0,0,0
-0.00186231,4.04364e-05,0.000240161,0,0,0
-0.00190052,1.08941e-05,0.000190159,0,0,0
-0.00193782,-6.19434e-05,0.000215561,0,0,0
-0.00197414,-4.29901e-06,0.000266132,0,0,0
-0.00200928,-1.81679e-05,0.000191819,0,0,0
-0.00200929,3.92925e-05,0.000241739,0,0,0
-0.00212285,3.79872e-05,0.000293211,0,0,0
-0.00193847,2.5214e-05,0.000215929,0,0,0
-0.00193063,-3.10827e-05,0.000266718,0,0,0
-0.00211708,-4.62131e-06,0.000268217,0,0,0
-0.00208068,5.37739e-05,0.000217616,0,0,0
-0.00211682,6.82807e-05,0.000193189,0,0,0
-0.00208332,3.88252e-05,0.000242702,0,0,0
-0.00203916,2.62812e-05,0.000268055,0,0,0
-0.00215223,3.89702e-05,0.000243824,0,0,0
-0.00218994,2.45183e-05,0.000269557,0,0,0
-0.00215437,2.42151e-05,0.000218629,0,0,0
-0.00218903,3.89605e-05,0.000294756,0,0,0
-0.00218556,1.12106e-05,0.00024486,0,0,0
-0.00215306,6.78681e-05,0.000294054,0,0,0
-0.00229575,3.8774e-05,0.000296101,0,0,0
-0.00233174,3.86293e-05,0.000246128,0,0,0
-0.00218953,1.00694e-05,0.000244441,0,0,0
-0.00233082,9.70081e-05,0.000246542,0,0,0
-0.00228899,1.14495e-05,0.000296562,0,0,0
-0.0024755,6.72049e-05,0.000298443,0,0,0
-0.00236582,-4.48868e-06,0.000322268,0,0,0
-0.00229022,1.11366e-05,0.000296567,0,0,0
-0.00225532,5.40542e-05,0.000270792,0,0,0
-0.00229039,5.4551e-05,0.000271438,0,0,0
-0.00232809,9.78364e-05,0.000246966,0,0,0
-0.00229154,6.88807e-05,0.000246277,0,0,0
-0.00250703,-4.30445e-06,0.000274067,0,0,0
-0.00251042,3.8088e-05,0.000298797,0,0,0
-0.00236301,-3.26775e-05,0.000222183,0,0,0
-0.00236343,3.92319e-05,0.000297219,0,0,0
-0.00243184,2.57698e-05,0.000273481,0,0,0
-0.00243606,5.34004e-05,0.0002731,0,0,0
-0.00239628,2.54666e-05,0.000222553,0,0,0
-0.00243571,6.82455e-05,0.000248366,0,0,0
-0.0024717,6.81008e-05,0.000198392,0,0,0
-0.00240123,9.66377e-05,0.000247237,0,0,0
-0.00258403,2.31718e-05,0.000274644,0,0,0
-0.00247591,3.79941e-05,0.000248216,0,0,0
-0.00250909,8.20178e-05,0.000274096,0,0,0
-0.00246956,2.51186e-05,0.000273793,0,0,0
-0.00242911,8.43354e-05,0.000223699,0,0,0
-0.00250555,5.36714e-05,0.000324415,0,0,0
-0.00250506,5.3865e-05,0.000274134,0,0,0
-0.0024694,3.94415e-05,0.000248715,0,0,0
-0.00254203,9.67343e-06,0.00024938,0,0,0
-0.00264996,3.93098e-05,0.000251367,0,0,0
-0.00246866,9.72981e-05,0.000248786,0,0,0
-0.00261151,5.3881e-05,0.000275911,0,0,0
-0.00257669,-4.27872e-06,0.000224912,0,0,0
-0.00257462,3.97704e-05,0.000250488,0,0,0
-0.00257692,6.84297e-05,0.000200165,0,0,0
-0.00264798,9.74793e-05,0.000251434,0,0,0
-0.00279406,0.000110778,0.00027821,0,0,0
-0.00272177,8.20409e-05,0.000226937,0,0,0
-0.00275636,6.74923e-05,0.000302683,0,0,0
-0.00278962,1.04386e-05,0.000303339,0,0,0
-0.00282585,-3.36337e-05,0.000328862,0,0,0
-0.00276008,3.75792e-05,0.000302227,0,0,0
-0.00286232,6.77019e-05,0.000254179,0,0,0
-0.00253575,2.60919e-05,0.000275338,0,0,0
-0.00279067,6.83852e-05,0.000253481,0,0,0
-0.00267639,2.58733e-05,0.000277071,0,0,0
-0.00275346,2.49062e-05,0.000328235,0,0,0
-0.00270999,8.43459e-05,0.000328065,0,0,0
-0.00278771,-3.49491e-06,0.000278651,0,0,0
-0.00282544,5.33144e-05,0.000328883,0,0,0
-0.00271922,2.46098e-05,0.000277223,0,0,0
-0.00293394,9.71544e-05,0.000255515,0,0,0
-0.00282799,5.30082e-05,0.000328803,0,0,0
-0.00282205,6.86592e-05,0.000253947,0,0,0
-0.00271426,1.1176e-05,0.000202333,0,0,0
-0.00275075,5.44975e-05,0.000277983,0,0,0
-0.00285952,3.92362e-05,0.000254221,0,0,0
-0.00282444,2.49387e-05,0.000278996,0,0,0
-0.00274843,2.6115e-05,0.00022818,0,0,0
-0.00274737,0.000127303,0.000252968,0,0,0
-0.00282691,9.70124e-05,0.000203545,0,0,0
-0.00281552,5.63059e-05,0.000279867,0,0,0
-0.00285794,5.43942e-05,0.000229483,0,0,0
-0.00282032,9.78633e-05,0.000304258,0,0,0
-0.00282089,9.82661e-05,0.000254324,0,0,0
-0.00278277,4.05318e-05,0.000253682,0,0,0
-0.00288791,5.55033e-05,0.000230289,0,0,0
-0.00285622,8.35982e-05,0.000279793,0,0,0
-0.00278269,5.51744e-05,0.000228516,0,0,0
-0.003075,9.98764e-06,0.000257227,0,0,0
-0.00292933,6.88756e-05,0.00020536,0,0,0
-0.0029654,5.40883e-05,0.000180552,0,0,0
-0.00281611,2.65729e-05,0.000229297,0,0,0
-0.0028535,1.17924e-05,0.000204406,0,0,0
-0.00285829,9.72864e-05,0.000204011,0,0,0
-0.00295954,-6.03778e-05,0.000231273,0,0,0
-0.00281471,4.12087e-05,0.000204215,0,0,0
-0.00289303,1.09544e-05,0.000254914,0,0,0
-0.00292744,5.46652e-05,0.000280798,0,0,0
-0.00289418,8.30213e-05,0.000179547,0,0,0
-0.00311561,5.19225e-05,0.000231987,0,0,0
-0.00289253,6.88853e-05,0.000154427,0,0,0
-0.00307558,0.000125588,0.000207008,0,0,0
-0.00296087,-4.65703e-05,0.000205768,0,0,0
-0.00307418,8.24868e-05,0.000232132,0,0,0
-0.00299792,5.48913e-05,0.000181278,0,0,0
-0.00299876,9.75899e-05,0.000206087,0,0,0
-0.00288768,4.05322e-05,0.00020483,0,0,0
-0.00310677,0.000112584,0.00023324,0,0,0
-0.00303432,-3.50395e-06,0.00023188,0,0,0
-0.00300626,6.70578e-05,0.000205555,0,0,0
-0.00289054,6.95943e-05,0.000104574,0,0,0
-0.00307237,8.26737e-05,0.000181935,0,0,0
-0.00296087,5.48267e-05,0.000230904,0,0,0
-0.00314226,3.99332e-05,0.000208445,0,0,0
-0.00310727,9.74934e-05,0.000157504,0,0,0
-0.00306708,2.60708e-05,0.000232644,0,0,0
-0.00310406,5.45787e-05,0.00013243,0,0,0
-0.00303144,4.04102e-05,0.00015655,0,0,0
-0.00310414,-1.78011e-05,0.000207802,0,0,0
-0.00314086,5.4569e-05,0.000183363,0,0,0
-0.00306585,8.41211e-05,0.000182433,0,0,0
-0.00325352,5.28091e-05,0.000134016,0,0,0
-0.00318197,9.63103e-05,0.000208404,0,0,0
-0.00317619,3.99011e-05,0.000208832,0,0,0
-0.00321588,8.24774e-05,0.000234212,0,0,0
-0.00317561,8.34348e-05,0.00023398,0,0,0
-0.00317593,5.50658e-05,0.00018401,0,0,0
-0.0031794,8.28157e-05,0.000233905,0,0,0
-0.00324955,9.761e-05,0.000209777,0,0,0
-0.00317734,5.42307e-05,0.00018367,0,0,0
-0.00321548,2.40919e-05,0.000233882,0,0,0
-0.00324973,9.70878e-05,0.000209434,0,0,0
-0.00328711,5.35444e-05,0.000235217,0,0,0
-0.00314145,6.84958e-05,0.000208134,0,0,0
-0.00321547,6.80285e-05,0.000209097,0,0,0
-0.00317635,8.33155e-05,0.000183703,0,0,0
-0.0031416,5.44497e-05,0.000133086,0,0,0
-0.00321274,0.000126594,0.000159314,0,0,0
-0.00325079,9.72971e-05,0.000209782,0,0,0
-0.00317207,0.000112826,0.000234093,0,0,0
-0.00317265,6.9292e-05,0.000208945,0,0,0
-0.00324485,5.52108e-05,0.000185131,0,0,0
-0.00328315,6.84864e-05,0.000210215,0,0,0
-0.00324485,5.52108e-05,0.000185131,0,0,0
-0.00321524,0.000154454,0.000208774,0,0,0
-0.0033589,3.8815e-05,0.000160867,0,0,0
-0.00324593,0.000126681,0.000209978,0,0,0
-0.00320805,5.52205e-05,0.000134199,0,0,0
-0.00342741,6.81708e-05,0.000212216,0,0,0
-0.0032484,3.96206e-05,0.000159597,0,0,0
-0.00320731,5.53398e-05,0.000184476,0,0,0
-0.00331691,6.89764e-05,0.000210945,0,0,0
-0.00339267,9.67655e-05,0.000211518,0,0,0
-0.00342048,5.51693e-05,0.000187599,0,0,0
-0.00324684,0.000112239,0.000184779,0,0,0
-0.00328076,0.000156144,0.000160382,0,0,0
-0.00331921,9.76357e-05,0.000160622,0,0,0
-0.00346389,0.00012557,0.000162317,0,0,0
-0.00327878,0.000112916,0.000135312,0,0,0
-0.00335925,8.17073e-05,0.000135395,0,0,0
-0.00339423,8.18844e-05,0.00013613,0,0,0
-0.00346241,0.000125808,0.000262871,0,0,0
-0.00332194,9.68074e-05,0.000160199,0,0,0
-0.00349549,0.000127014,0.000213664,0,0,0
-0.00346686,0.000139713,0.000187353,0,0,0
-0.00360798,8.18399e-05,0.000189446,0,0,0
-0.00346365,9.6798e-05,0.000162279,0,0,0
-0.00349434,0.000170422,0.00018862,0,0,0
-0.00332195,0.000110608,0.000134778,0,0,0
-0.00342955,0.000111153,0.000136815,0,0,0
-0.00338912,6.8696e-05,0.000161711,0,0,0
-0.00350178,0.000110596,0.000187706,0,0,0
-0.00341851,0.000113339,0.000187666,0,0,0
-0.00357382,6.69009e-05,0.0001636,0,0,0
-0.00346019,0.000111546,0.000187558,0,0,0
-0.00346274,0.00011124,0.000187479,0,0,0
-0.00346357,0.000197875,0.000187503,0,0,0
-0.00357126,0.000111144,0.000138895,0,0,0
-0.00356731,0.000169745,0.000189235,0,0,0
-0.0035678,0.000140854,0.00013892,0,0,0
-0.00357664,0.000210564,0.000163272,0,0,0
-0.00364488,0.000153688,0.000164663,0,0,0
-0.00364587,0.000124603,0.000164629,0,0,0
-0.00356615,0.000155416,0.000214396,0,0,0
-0.00375382,0.000167763,0.000241321,0,0,0
-0.0036472,0.000138411,0.000139124,0,0,0
-0.00370983,9.72368e-05,0.00021641,0,0,0
-0.00371553,0.000226026,0.00014061,0,0,0
-0.00357143,0.000110621,0.000138551,0,0,0
-0.0035702,0.000212331,0.000163683,0,0,0
-0.0036835,0.000138594,0.000139775,0,0,0
-0.00382835,0.000152206,0.000166548,0,0,0
-0.00375242,0.00013874,0.000140897,0,0,0
-0.00371536,0.000182611,0.000165738,0,0,0
-0.00364009,6.81939e-05,0.000165057,0,0,0
-0.00368177,0.000167799,0.000190086,0,0,0
-0.00360759,0.000182589,0.000164045,0,0,0
-0.00360601,0.000197747,0.000139307,0,0,0
-0.00371602,0.000197135,9.02957e-05,0,0,0
-0.00364233,0.000153994,0.000164742,0,0,0
-0.00375102,0.000254772,0.000140951,0,0,0
-0.00371791,0.000182305,0.000165659,0,0,0
-0.00375341,0.000211052,0.000166,0,0,0
-0.00378576,0.00016844,0.000191854,0,0,0
-0.00367699,0.000140042,0.000140274,0,0,0
-0.00371833,0.000196754,0.000190774,0,0,0
-0.00371158,0.000183231,0.000165814,0,0,0
-0.00382867,0.000210272,0.000166967,0,0,0
-0.00375556,0.00015236,0.000165589,0,0,0
-0.00371462,0.000182731,0.000216015,0,0,0
-0.00371627,0.000225907,9.03333e-05,0,0,0
-0.00360396,0.000125225,0.000113856,0,0,0
-0.00378362,0.000183195,0.000217049,0,0,0
-0.00375341,0.000211052,0.000166,0,0,0
-0.00357061,0.000183121,0.000113457,0,0,0
-0.00374995,0.000139365,0.000140889,0,0,0
-0.00382323,0.000196755,0.000141922,0,0,0
-0.00364052,0.000197841,0.000189887,0,0,0
-0.00375161,0.000167302,0.000140587,0,0,0
-0.00363614,0.000140873,8.98487e-05,0,0,0
-0.00371348,0.000153504,0.00011516,0,0,0
-0.00367542,0.000111263,0.00014032,0,0,0
-0.00371356,0.000182522,0.000215668,0,0,0
-0.00370934,0.000155168,0.000115923,0,0,0
-0.00371167,0.000197351,0.000140304,0,0,0
-0.00371429,0.000124942,0.00011547,0,0,0
-0.00364307,0.000153875,0.000114465,0,0,0
-0.00363968,0.000111482,8.97357e-05,0,0,0
-0.00375259,0.000182154,0.000115769,0,0,0
-0.00353388,0.000154687,0.000113112,0,0,0
-0.0035702,0.000168672,8.83411e-05,0,0,0
-0.00374961,0.00015421,0.000116155,0,0,0
-0.00375349,0.000167712,9.05698e-05,0,0,0
-0.00360808,0.000153698,0.000113731,0,0,0
-0.00367657,0.000125593,0.000115159,0,0,0
-0.00370976,0.00012568,0.000165822,0,0,0
-0.00360652,0.000124919,0.000113777,0,0,0
-0.00356962,0.000212205,0.00011349,0,0,0
-0.00375085,0.000109961,0.000140943,0,0,0
-0.00375391,0.000138224,0.00014047,0,0,0
-0.00379022,0.000138408,0.000141121,0,0,0
-0.00367608,0.000154484,0.000165473,0,0,0
-0.00364439,0.000153881,0.000114382,0,0,0
-0.00372139,0.000239095,6.47527e-05,0,0,0
-0.00371875,0.000152647,1.45305e-05,0,0,0
-0.00364249,0.000197408,0.000139614,0,0,0
-0.00363581,0.000155441,0.000165241,0,0,0
-0.00379228,0.00022473,0.00014115,0,0,0
-0.00357168,0.000139393,0.000138589,0,0,0
-0.00371908,0.000152698,0.000165282,0,0,0
-0.00371372,0.000168475,0.000140619,0,0,0
-0.00356928,0.000169313,0.000138962,0,0,0
-0.00367996,0.000225723,8.96822e-05,0,0,0
-0.00371141,0.000139816,0.000190942,0,0,0
-0.00367501,0.000198211,0.000140341,0,0,0
-0.00363894,0.000111602,0.000140013,0,0,0
-0.00367741,0.000168292,0.000139968,0,0,0
-0.00360718,0.00016814,0.00013893,0,0,0
-0.00371398,0.000153311,0.000165441,0,0,0
-0.00360091,0.000140622,0.000189672,0,0,0
-0.0036368,0.000126357,0.000165208,0,0,0
-0.00382001,0.000168737,0.000242866,0,0,0
-0.00378569,0.000225581,0.000241863,0,0,0
-0.003787,0.000168127,0.000191859,0,0,0
-0.00378502,0.0001249,0.000166789,0,0,0
-0.00370868,0.000140644,0.000191365,0,0,0
-0.00374837,0.000183221,0.000216746,0,0,0
-0.00381935,0.000211951,0.000268103,0,0,0
-0.00370993,0.000197792,0.00024129,0,0,0
-0.00378354,0.000182876,0.000217137,0,0,0
-0.00359844,0.000227682,0.000240053,0,0,0
-0.00371141,0.000226251,0.000241332,0,0,0
-0.00374566,0.000140113,0.000241954,0,0,0
-0.00385575,0.000226255,0.000243245,0,0,0
-0.00386054,0.000152615,0.00026792,0,0,0
-0.00381433,0.000212883,0.000268174,0,0,0
-0.00378354,0.000182876,0.000217137,0,0,0
-0.00385534,0.000269543,0.000167923,0,0,0
-0.00381754,0.0001544,0.000268112,0,0,0
-0.00392359,0.000183627,0.000320115,0,0,0
-0.00385443,0.000168511,0.000293534,0,0,0
-0.0039679,0.000138188,0.000244498,0,0,0
-0.00385096,0.000227196,0.000294029,0,0,0
-0.00399853,0.000182518,0.000270457,0,0,0
-0.00389256,0.000240046,0.000268755,0,0,0
-0.00400206,0.000153127,0.000270344,0,0,0
-0.00385542,0.000197164,0.000243295,0,0,0
-0.00392673,0.000254985,0.000294601,0,0,0
-0.00393224,0.000225162,0.000244216,0,0,0
-0.00385534,0.000240504,0.000318725,0,0,0
-0.00396313,0.000167892,0.000244607,0,0,0
-0.00400323,0.000282655,0.000244897,0,0,0
-0.00396204,0.000182857,0.00027015,0,0,0
-0.00397055,0.000238438,0.000269299,0,0,0
-0.00385656,0.00025543,0.000193349,0,0,0
-0.00393102,0.000239276,0.00021879,0,0,0
-0.0039259,0.00016835,0.000294577,0,0,0
-0.00399894,0.000254705,0.000245367,0,0,0
-0.00402932,0.000212525,0.000321494,0,0,0
-0.00399894,0.000254705,0.000245367,0,0,0
-0.0040738,0.000239199,0.000321345,0,0,0
-0.00399375,0.000212222,0.000270566,0,0,0
-0.00399524,0.000342078,0.000295744,0,0,0
-0.00396124,0.000312816,0.000294976,0,0,0
-0.00417695,0.000254879,0.000248098,0,0,0
-0.00407355,0.000268164,0.000271101,0,0,0
-0.00406901,0.000211442,0.000271533,0,0,0
-0.0041805,0.000239289,0.000222564,0,0,0
-0.00399515,0.000255324,0.000245442,0,0,0
-0.00414337,0.000253867,0.000247024,0,0,0
-0.00403088,0.000197644,0.000246106,0,0,0
-0.00421509,0.00022474,0.00029831,0,0,0
-0.00410467,0.000283603,0.000246746,0,0,0
-0.00410077,0.000212641,0.00022241,0,0,0
-0.00417523,0.000211449,0.000222597,0,0,0
-0.0041078,0.000239763,0.000221517,0,0,0
-0.00406644,0.000255685,0.000246828,0,0,0
-0.00428639,0.000253864,0.00024902,0,0,0
-0.00417762,0.000225466,0.00019744,0,0,0
-0.00421616,0.000253712,0.000247982,0,0,0
-0.00410458,0.000196848,0.000196444,0,0,0
-0.00417713,0.000254357,0.000247755,0,0,0
-0.00432072,0.000210821,0.000224602,0,0,0
-0.00417597,0.000240027,0.000272916,0,0,0
-0.00417153,0.000197426,0.000247839,0,0,0
-0.00413784,0.00022623,0.000247489,0,0,0
-0.00410261,0.000255018,0.000196511,0,0,0
-0.00424769,0.000182203,0.000223606,0,0,0
-0.00424333,0.000226356,0.00024883,0,0,0
-0.00414031,0.000196906,0.000146902,0,0,0
-0.00428367,0.000254693,0.000249444,0,0,0
-0.00417423,0.000183073,0.00017271,0,0,0
-0.00420907,0.000197297,0.000248494,0,0,0
-0.0043209,0.000210298,0.000224259,0,0,0
-0.00432072,0.000210821,0.000224602,0,0,0
-0.00424628,0.000240776,0.00017374,0,0,0
-0.0042481,0.000254389,0.000198516,0,0,0
-0.00443098,0.00023898,0.000175629,0,0,0
-0.00417564,0.000283635,0.000197507,0,0,0
-0.0043898,0.000196643,0.000250802,0,0,0
-0.0043535,0.000196459,0.000250151,0,0,0
-0.0043171,0.000254854,0.00019955,0,0,0
-0.00428162,0.000182171,0.000223993,0,0,0
-0.00435225,0.000139311,0.000200226,0,0,0
-0.00424092,0.000212616,0.000173861,0,0,0
-0.00420939,0.000182728,0.000173102,0,0,0
-0.00435381,0.00016809,0.00020018,0,0,0
-0.00424215,0.000198502,0.000199287,0,0,0
-0.0043133,0.000198013,0.000149705,0,0,0
-0.00427665,0.000212674,0.000124319,0,0,0
-0.00431883,0.00022565,0.000149239,0,0,0
-0.00438353,0.000198164,0.000150743,0,0,0
-0.00438518,0.0002123,0.000175862,0,0,0
-0.00427897,0.000139659,0.000148987,0,0,0
-0.00449825,0.000224989,0.000151631,0,0,0
-0.00427854,0.000169147,9.90868e-05,0,0,0
-0.00445426,0.000198123,0.000202062,0,0,0
-0.00427897,0.000139659,0.000148987,0,0,0
-0.00423936,0.000241575,0.000123702,0,0,0
-0.00445425,0.000140662,0.000152141,0,0,0
-0.00442026,0.000125201,0.000125952,0,0,0
-0.00427872,0.000168625,9.87431e-05,0,0,0
-0.004344,0.000199002,0.000100234,0,0,0
-0.0043822,0.000242094,0.000126042,0,0,0
-0.00438394,0.000168954,0.000100516,0,0,0
-0.00434599,0.000198293,0.000150087,0,0,0
-0.00456105,6.80957e-05,0.000228859,0,0,0
-0.00453175,0.000196708,0.000152324,0,0,0
-0.00445797,0.000269883,0.000126615,0,0,0
-0.00452351,0.000125962,0.000177997,0,0,0
-0.00460215,0.000196614,5.28923e-05,0,0,0
-0.00445087,0.000213467,0.000127126,0,0,0
-0.00448851,0.000227459,0.000102272,0,0,0
-0.00452623,0.000226808,0.000102584,0,0,0
-0.00449461,0.000211562,7.6658e-05,0,0,0
-0.00462766,0.000170018,0.000154638,0,0,0
-0.00470333,0.000183687,0.00018072,0,0,0
-0.00463071,0.000169518,0.00020484,0,0,0
-0.0046742,0.000196579,0.000104128,0,0,0
-0.00463517,0.000197223,0.0001039,0,0,0
-0.00462791,0.00019879,0.000154676,0,0,0
-0.00455958,0.000212572,0.000178325,0,0,0
-0.00466909,0.000139454,0.000154493,0,0,0
-0.00470392,0.000153954,0.00013015,0,0,0
-0.00481796,0.000225155,0.000156443,0,0,0
-0.00467008,0.000168107,0.000104254,0,0,0
-0.00478125,0.000152784,0.000180883,0,0,0
-0.00463615,0.000225876,5.36606e-05,0,0,0
-0.00469971,0.00022772,0.000155667,0,0,0
-0.00481079,0.000183381,0.000131789,0,0,0
-0.00488565,0.000225612,0.000157561,0,0,0
-0.00474238,0.000196843,0.000155527,0,0,0
-0.00477769,0.000226112,0.000156211,0,0,0
-0.00477804,0.000269004,0.000130739,0,0,0
-0.00488663,0.000196528,0.000157527,0,0,0
-0.00474238,0.000254581,0.000105321,0,0,0
-0.00474121,0.00022645,0.000155904,0,0,0
-0.00481278,0.000240409,0.000131437,0,0,0
-0.004781,0.00018175,0.000130639,0,0,0
-0.00488904,0.000268005,0.000182291,0,0,0
-0.0048868,0.000239942,0.000132399,0,0,0
-0.00488746,0.000181766,0.000132416,0,0,0
-0.00481814,0.000224632,0.000156099,0,0,0
-0.00480791,0.000255993,0.000157055,0,0,0
-0.00496008,0.000297331,0.000133433,0,0,0
-0.00487624,0.000285871,0.000208747,0,0,0
-0.0047758,0.000269639,0.000181444,0,0,0
-0.00477588,0.000226299,0.000106014,0,0,0
-0.00495902,0.000297122,0.000133085,0,0,0
-0.00481551,0.000239581,0.000131013,0,0,0
-0.00492288,0.000282615,0.000157512,0,0,0
-0.00491998,0.000283966,0.000158279,0,0,0
-0.00496001,0.000268037,0.000133052,0,0,0
-0.00502868,0.000239411,0.000134136,0,0,0
-0.00489391,0.000310159,0.000106466,0,0,0
-0.00485158,0.000282531,5.59993e-05,0,0,0
-0.0048529,0.000311235,0.000156511,0,0,0
-0.00496381,0.000281219,0.000107555,0,0,0
-0.00488714,0.000282834,0.000106927,0,0,0
-0.00496357,0.000353844,0.000132653,0,0,0
-0.00488895,0.000238988,8.17828e-05,0,0,0
-0.00503834,0.000309321,0.000108123,0,0,0
-0.00492312,0.000253927,0.000107629,0,0,0
-0.0051047,0.000397369,0.000159882,0,0,0
-0.00496215,0.000354679,0.000132993,0,0,0
-0.00503644,0.000339047,0.000158777,0,0,0
-0.00510229,0.000325891,0.000135119,0,0,0
-0.00510131,0.000354976,0.000135153,0,0,0
-0.00510667,0.000339199,0.000159816,0,0,0
-0.00517789,0.000310266,0.00016082,0,0,0
-0.00510749,0.000324437,0.000134704,0,0,0
-0.00507233,0.00038252,8.41071e-05,0,0,0
-0.00506978,0.000325088,0.000134393,0,0,0
-0.0051018,0.000354782,0.000185434,0,0,0
-0.00524665,0.000368394,0.000212206,0,0,0
-0.00528724,0.000352868,0.000137046,0,0,0
-0.0050678,0.000383258,0.000134459,0,0,0
-0.00521412,0.000411527,0.000186695,0,0,0
-0.00517386,0.000368548,0.000211248,0,0,0
-0.00521462,0.0003387,0.000161165,0,0,0
-0.00521372,0.000410879,0.000136158,0,0,0
-0.00510353,0.000383316,8.49174e-05,0,0,0
-0.00521487,0.000367471,0.000161203,0,0,0
-0.00520993,0.000353761,0.00018644,0,0,0
-0.00528568,0.000425487,0.000162228,0,0,0
-0.00524821,0.000353513,0.000136818,0,0,0
-0.0052455,0.000411801,0.000187162,0,0,0
-0.00521,0.000383055,0.000186821,0,0,0
-0.0052091,0.000397497,0.00021202,0,0,0
-0.00524476,0.000411921,0.000237439,0,0,0
-0.00539586,0.000395589,0.000163549,0,0,0
-0.00546477,0.000337997,0.000214876,0,0,0
-0.00535378,0.000440393,0.000188461,0,0,0
-0.00542564,0.000397221,0.000164698,0,0,0
-0.00539429,0.000468208,0.000188731,0,0,0
-0.00532142,0.000381608,0.000137471,0,0,0
-0.00535781,0.000468546,0.000188423,0,0,0
-0.00546379,0.000424819,0.000164704,0,0,0
-0.00546816,0.000438127,0.0001894,0,0,0
-0.00542368,0.000411454,0.00018955,0,0,0
-0.0054628,0.000396167,0.000214943,0,0,0
-0.00564527,0.000424046,0.000116735,0,0,0
-0.00568019,0.000496326,0.000142225,0,0,0
-0.00546123,0.000425125,0.000164783,0,0,0
-0.00564239,0.000438921,0.000192207,0,0,0
-0.00564461,0.000409523,0.000192178,0,0,0
-0.00564189,0.000439114,0.000141926,0,0,0
-0.00549885,0.000381656,9.00088e-05,0,0,0
-0.0057902,0.000423015,0.000168673,0,0,0
-0.00568323,0.000452167,0.000117084,0,0,0
-0.00567836,0.000410013,0.000192909,0,0,0
-0.00574835,0.00043913,0.000143703,0,0,0
-0.00575445,0.000423234,0.000118089,0,0,0
-0.00578921,0.0004521,0.000168707,0,0,0
-0.00582726,0.000538277,0.000118762,0,0,0
-0.00571022,0.000425332,0.000118276,0,0,0
-0.00585268,0.000424927,0.000170206,0,0,0
-0.0058931,0.000409923,9.53894e-05,0,0,0
-0.00581429,0.000411332,0.000145211,0,0,0
-0.00589723,0.000480894,0.000170438,0,0,0
-0.00592695,0.000453231,0.000171206,0,0,0
-0.00596284,0.000438966,0.000146742,0,0,0
-0.00600073,0.000437793,0.00014671,0,0,0
-0.0059696,0.000466291,0.000146281,0,0,0
-0.00589122,0.000510911,0.000170542,0,0,0
-0.00603862,0.000480556,0.000121893,0,0,0
-0.00607269,0.000481375,0.000173249,0,0,0
-0.00607244,0.000452603,0.000173211,0,0,0
-0.00606633,0.000468499,0.000198825,0,0,0
-0.00610703,0.000438054,0.000248957,0,0,0
-0.00602705,0.000440372,0.00019856,0,0,0
-0.00611215,0.00050898,0.000173171,0,0,0
-0.00620912,0.000453526,0.000175363,0,0,0
-0.00610637,0.000452571,0.000173598,0,0,0
-0.00628727,0.000393934,0.000125642,0,0,0
-0.00617569,0.000511101,0.000175051,0,0,0
-0.00610182,0.000439785,0.000149246,0,0,0
-0.00610612,0.000423799,0.000173561,0,0,0
-0.00613732,0.000482332,0.000124165,0,0,0
-0.00617346,0.000439102,0.000149944,0,0,0
-0.00621044,0.00043857,0.000200533,0,0,0
-0.00621077,0.000467662,0.000200482,0,0,0
-0.00628578,0.000495847,0.000151206,0,0,0
-0.00624939,0.000510305,0.000125389,0,0,0
-0.0063939,0.000538762,0.000127427,0,0,0
-0.00631987,0.000437832,0.000101329,0,0,0
-0.00628711,0.000509654,0.0001257,0,0,0
-0.00628817,0.000509864,0.000126048,0,0,0
-0.00642551,0.00049627,0.000203559,0,0,0
-0.00631955,0.000553797,0.000201857,0,0,0
-0.00636055,0.000451324,0.000126676,0,0,0
-0.00631929,0.000525302,0.000101693,0,0,0
-0.00632721,0.000465283,0.000151061,0,0,0
-0.00635684,0.000582634,0.000152269,0,0,0
-0.00642963,0.000582479,0.000153227,0,0,0
-0.0063962,0.000567421,7.71041e-05,0,0,0
-0.00642352,0.000496979,0.000153705,0,0,0
-0.00645985,0.000568424,0.000178855,0,0,0
-0.00657975,0.000551296,0.000104155,0,0,0
-0.00650185,0.000538262,0.000128777,0,0,0
-0.00650275,0.00052382,0.000103578,0,0,0
-0.00642783,0.00053873,0.000127814,0,0,0
-0.00639208,0.000481211,0.000127436,0,0,0
-0.00650185,0.000538262,0.000128777,0,0,0
-0.0064265,0.000582659,0.000103114,0,0,0
-0.00653881,0.000581667,0.000154581,0,0,0
-0.00645926,0.000612234,0.000103878,0,0,0
-0.00645992,0.000597718,0.000179237,0,0,0
-0.00650284,0.000566915,7.85376e-05,0,0,0
-0.00642806,0.000611438,0.000103067,0,0,0
-0.00653916,0.000624559,0.000129109,0,0,0
-0.00657456,0.000639185,0.000154959,0,0,0
-0.00660534,0.000567795,0.00018086,0,0,0
-0.00664652,0.000552396,0.000155893,0,0,0
-0.00653371,0.000582279,0.00015474,0,0,0
-0.00650424,0.000552279,0.00010362,0,0,0
-0.00645505,0.000613301,0.000204855,0,0,0
-0.00649978,0.000640049,0.000104147,0,0,0
-0.00664876,0.000638196,0.000155578,0,0,0
-0.00660716,0.000683083,0.000130646,0,0,0
-0.00667879,0.000668599,0.000156766,0,0,0
-0.00674621,0.000684222,0.000133061,0,0,0
-0.00674837,0.000654227,0.000233247,0,0,0
