0.000363911,0.000361141,0.00111081,0,0,0
0.000437193,0.000303752,0.00110978,0,0,0
0.000363487,0.000331653,0.00116071,0,0,0
0.000475403,0.000333294,0.00115978,0,0,0
0.000585989,0.000348742,0.00113334,0,0,0
0.000434393,0.000332217,0.00110973,0,0,0
0.000216925,0.000359997,0.00111239,0,0,0
0.00043398,0.000404404,0.00108464,0,0,0
0.000397734,0.000331357,0.0011097,0,0,0
0.000508592,0.000390944,0.00105891,0,0,0
0.00047351,0.000347504,0.00108434,0,0,0
0.000433733,0.000375438,0.00113489,0,0,0
0.000329584,0.000318097,0.00108639,0,0,0
0.000478969,0.000349161,0.00108519,0,0,0
0.00043803,0.00031879,0.00103476,0,0,0
0.00044124,0.000304573,0.00111028,0,0,0
0.000330405,0.000390596,0.0010613,0,0,0
0.000329487,0.000389955,0.00101068,0,0,0
0.000439842,0.000318977,0.000984564,0,0,0
0.000399476,0.000389878,0.00090908,0,0,0
0.000440239,0.000361989,0.00100937,0,0,0
0.000362924,0.000361096,0.000959975,0,0,0
0.000249678,0.000373263,0.0009354,0,0,0
0.00051197,0.000333655,0.000908163,0,0,0
0.000252489,0.000388734,0.000910658,0,0,0
0.000293762,0.000303578,0.000910745,0,0,0
0.000365311,0.000404817,0.000934926,0,0,0
0.000399326,0.000318094,0.000884238,0,0,0
0.000323643,0.000418263,0.000809439,0,0,0
0.000328679,0.000332695,0.000910391,0,0,0
0.000470783,0.000332056,0.000857774,0,0,0
0.0004003,0.00036098,0.00085885,0,0,0
0.000435053,0.000375774,0.000883574,0,0,0
0.000397582,0.000404088,0.000833642,0,0,0
0.000290796,0.000375458,0.000885575,0,0,0
0.00039643,0.000418418,0.00080848,0,0,0
0.000432334,0.000476619,0.00080816,0,0,0
0.000285513,0.000432061,0.000834866,0,0,0
0.0003583,0.000432215,0.000833907,0,0,0
0.000292923,0.000404014,0.000885348,0,0,0
0.0004745,0.000361969,0.000858231,0,0,0
0.000436945,0.000419301,0.000908806,0,0,0
0.000323066,0.000403427,0.000884886,0,0,0
0.0003285,0.00038991,0.000859842,0,0,0
0.000289888,0.000447451,0.000910765,0,0,0
0.000358793,0.000461106,0.000884222,0,0,0
0.00028518,0.000547587,0.000885205,0,0,0
0.000252831,0.000403579,0.000885924,0,0,0
0.000358628,0.000446784,0.0009093,0,0,0
0.000432992,0.000462096,0.000883603,0,0,0
0.000395193,0.000446802,0.00090908,0,0,0
0.000357972,0.000388607,0.000909317,0,0,0
0.000325206,0.000418182,0.000910081,0,0,0
0.000325958,0.000462238,0.000935573,0,0,0
0.000253406,0.000447112,0.000911073,0,0,0
0.000254312,0.000403817,0.000986478,0,0,0
0.000326618,0.000419017,0.00091042,0,0,0
0.000324147,0.000462051,0.000985771,0,0,0
0.000256548,0.000433492,0.00088638,0,0,0
0.000324971,0.000433153,0.00093554,0,0,0
0.000431184,0.000360512,0.000908664,0,0,0
0.000285265,0.000431793,0.000985705,0,0,0
0.000287667,0.000418053,0.000910736,0,0,0
0.000398171,0.000418859,0.000909466,0,0,0
0.000471218,0.00037644,0.000933891,0,0,0
0.000326124,0.000418824,0.000960701,0,0,0
0.000437206,0.000361766,0.000959444,0,0,0
0.000327099,0.000403972,0.000985519,0,0,0
0.000253254,0.000461764,0.00093662,0,0,0
0.000365406,0.000390696,0.000960436,0,0,0
0.000398911,0.000418978,0.000959743,0,0,0
0.000324971,0.000433153,0.00093554,0,0,0
0.000325137,0.000389739,0.000960668,0,0,0
0.000467254,0.000375299,0.000933472,0,0,0
0.000287667,0.000418053,0.000910736,0,0,0
0.000320433,0.000330741,0.000960178,0,0,0
0.000469888,0.000390248,0.000908386,0,0,0
0.000358642,0.000418021,0.000959975,0,0,0
0.000430936,0.000389284,0.000908702,0,0,0
0.000360867,0.000346021,0.000934868,0,0,0
0.000362197,0.000332214,0.000960373,0,0,0
0.000328279,0.000376118,0.000935976,0,0,0
0.000351386,0.000358717,0.000959405,0,0,0
0.000363608,0.000390786,0.000910507,0,0,0
0.000249388,0.000360067,0.00091132,0,0,0
0.000323736,0.00043284,0.000935544,0,0,0
0.000431361,0.000361034,0.000909008,0,0,0
0.000430358,0.000447147,0.000908689,0,0,0
0.000432513,0.000404442,0.000883963,0,0,0
0.000429537,0.000374648,0.000933784,0,0,0
0.000427806,0.000446841,0.000908609,0,0,0
0.000316231,0.000460045,0.000884806,0,0,0
0.000433666,0.000390112,0.000909125,0,0,0
0.000331723,0.000419629,0.000910579,0,0,0
0.000356502,0.000403265,0.00093478,0,0,0
0.00043202,0.000346511,0.000984451,0,0,0
0.000177575,0.000402799,0.000886891,0,0,0
0.000397842,0.000375251,0.000984875,0,0,0
0.000362196,0.000389951,0.000910167,0,0,0
0.000366821,0.000347871,0.000885433,0,0,0
0.000254669,0.000361202,0.000911823,0,0,0
0.000399323,0.000404529,0.000934627,0,0,0
0.000366643,0.000347349,0.00088509,0,0,0
0.000182283,0.000302662,0.000912451,0,0,0
0.000330173,0.000390948,0.000860613,0,0,0
0.000221152,0.000346721,0.000887095,0,0,0
0.000362116,0.000346611,0.000834737,0,0,0
0.000255232,0.000360799,0.000961756,0,0,0
0.000399585,0.000376034,0.000834463,0,0,0
0.000255479,0.000389764,0.000911513,0,0,0
0.000398516,0.000332307,0.000859596,0,0,0
0.000184504,0.000389797,0.000862274,0,0,0
0.000212495,0.000330518,0.000861401,0,0,0
0.000251774,0.000403788,0.000886272,0,0,0
0.000360552,0.000317652,0.000884897,0,0,0
0.000183448,0.000332269,0.000912828,0,0,0
0.000430538,0.00040401,0.000833691,0,0,0
0.000253834,0.000375203,0.000836037,0,0,0
0.000323574,0.000374858,0.00088528,0,0,0
0.000285691,0.000417621,0.000860463,0,0,0
0.000360137,0.000447576,0.000809601,0,0,0
0.000143165,0.000345112,0.000887638,0,0,0
0.000254574,0.000375322,0.000886314,0,0,0
0.000253162,0.000374487,0.000885974,0,0,0
0.000142835,0.000374204,0.000887588,0,0,0
0.000328444,0.000390441,0.000910898,0,0,0
0.000220327,0.000375619,0.000937326,0,0,0
0.000399666,0.000419374,0.000909893,0,0,0
0.000254834,0.000375525,0.000886745,0,0,0
0.00010941,0.000446999,0.000913505,0,0,0
0.000251774,0.000403788,0.000886272,0,0,0
0.000255067,0.000404213,0.000936628,0,0,0
0.000250293,0.00037451,0.000936519,0,0,0
0.000252267,0.000432679,0.000936586,0,0,0
0.000289232,0.000389274,0.000910782,0,0,0
0.000105446,0.000388121,0.000963292,0,0,0
0.000329104,0.00034722,0.000885745,0,0,0
0.00018261,0.000374968,0.000937637,0,0,0
0.000324244,0.000404271,0.000935938,0,0,0
0.000290079,0.00041921,0.000961784,0,0,0
0.000216131,0.000288052,0.00093723,0,0,0
0.00046776,0.000404467,0.00088366,0,0,0
0.000321942,0.000331533,0.000860479,0,0,0
0.000324082,0.000346288,0.000885674,0,0,0
0.000399434,0.000332948,0.000910216,0,0,0
0.000363446,0.000332803,0.000860243,0,0,0
0.000288752,0.00033162,0.000911143,0,0,0
0.000328281,0.000332458,0.000860634,0,0,0
0.000327377,0.000260279,0.000885641,0,0,0
0.000292787,0.000303468,0.000911181,0,0,0
0.000362952,0.00033261,0.000910524,0,0,0
0.000360387,0.000346104,0.000885023,0,0,0
0.000364517,0.000303831,0.00091057,0,0,0
0.000290411,0.000361421,0.000861239,0,0,0
0.00029453,0.000275211,0.000911571,0,0,0
0.000286447,0.00036028,0.00086082,0,0,0
0.000434834,0.000318322,0.000884366,0,0,0
0.000506056,0.000347255,0.000883361,0,0,0
0.000333067,0.000406099,0.000835958,0,0,0
0.000327059,0.000318345,0.00088606,0,0,0
0.000364598,0.000376211,0.000835198,0,0,0
0.000186754,0.000332971,0.000863058,0,0,0
0.000326963,0.000390202,0.000810344,0,0,0
0.000401246,0.000333135,0.000860019,0,0,0
0.00043449,0.000361214,0.000858894,0,0,0
0.000394563,0.000375102,0.000834392,0,0,0
0.000215965,0.000331466,0.000912101,0,0,0
0.000252941,0.000389735,0.000811307,0,0,0
0.000295103,0.000376482,0.000886513,0,0,0
0.000294294,0.00034792,0.000886824,0,0,0
0.000328035,0.000303493,0.000910877,0,0,0
0.000251787,0.000375025,0.000936947,0,0,0
0.000180225,0.000345325,0.000837138,0,0,0
0.000328951,0.000361872,0.000911292,0,0,0
0.000291058,0.000302961,0.000961466,0,0,0
0.000332492,0.000333525,0.000961611,0,0,0
0.000400339,0.00034739,0.000935416,0,0,0
0.000473208,0.000362187,0.000909291,0,0,0
0.000327964,0.000332787,0.000911259,0,0,0
0.000333891,0.000348161,0.000936529,0,0,0
0.000256317,0.000332104,0.000911957,0,0,0
0.000218283,0.000346743,0.00093764,0,0,0
0.000361965,0.000303525,0.00091049,0,0,0
0.000432843,0.00037535,0.000884014,0,0,0
0.000328281,0.000332458,0.000860634,0,0,0
0.000223387,0.000347356,0.000937799,0,0,0
0.000252037,0.000302593,0.000861567,0,0,0
0.000362785,0.000433762,0.00083519,0,0,0
0.000326976,0.00036144,0.000861019,0,0,0
0.000292716,0.000390499,0.000861356,0,0,0
0.00032961,0.000376388,0.000835933,0,0,0
0.000362198,0.000346291,0.000834825,0,0,0
0.000254672,0.000317542,0.000836481,0,0,0
0.000283553,0.000359206,0.000759926,0,0,0
0.000324741,0.000360805,0.000810315,0,0,0
0.000287024,0.000360154,0.000810627,0,0,0
0.00036567,0.000318541,0.00078493,0,0,0
0.0002942,0.00031838,0.000785972,0,0,0
0.00025434,0.000404371,0.000786225,0,0,0
0.000368809,0.000406318,0.000785374,0,0,0
0.000435904,0.000376127,0.000733686,0,0,0
0.000435739,0.000361804,0.000758764,0,0,0
0.00025599,0.000346575,0.000685763,0,0,0
0.000332082,0.000333354,0.000760583,0,0,0
0.000400259,0.00033309,0.000709184,0,0,0
0.0003254,0.000375321,0.000734956,0,0,0
0.000364859,0.000347716,0.000735034,0,0,0
0.000253025,0.000360718,0.000710799,0,0,0
0.000438963,0.000362826,0.000708906,0,0,0
0.000144248,0.000389116,0.00076238,0,0,0
0.000220029,0.00024613,0.000762092,0,0,0
0.000253765,0.000360837,0.000761076,0,0,0
0.000292813,0.000347681,0.00078627,0,0,0
0.000219104,0.000419242,0.000912545,0,0,0
0.000292389,0.000318193,0.00083617,0,0,0
0.000109425,0.000389539,0.000863585,0,0,0
0.000256578,0.000318571,0.00078654,0,0,0
0.000289176,0.000361108,0.000861243,0,0,0
0.000359824,0.000346507,0.00083509,0,0,0
0.000287611,0.000389887,0.000861197,0,0,0
0.000284304,0.000446922,0.000860761,0,0,0
0.000251058,0.00047658,0.000811679,0,0,0
0.000472877,0.000449016,0.000859035,0,0,0
0.000220846,0.000448723,0.000862729,0,0,0
0.00039869,0.000434226,0.000885075,0,0,0
0.000289736,0.000462102,0.000936312,0,0,0
0.000215482,0.000432946,0.000887392,0,0,0
0.000287117,0.000389693,0.000911478,0,0,0
0.000399761,0.000405254,0.000935403,0,0,0
0.000364033,0.000405311,0.000885861,0,0,0
0.000288762,0.000404254,0.000986954,0,0,0
0.000214977,0.000331079,0.00101266,0,0,0
0.000291165,0.000332777,0.000962191,0,0,0
0.000292318,0.000318448,0.000987353,0,0,0
0.000222576,0.00034749,0.00103871,0,0,0
0.000147815,0.000289167,0.0010396,0,0,0
0.00037047,0.000276642,0.00101194,0,0,0
0.000332093,0.000319211,0.0010374,0,0,0
0.00019039,0.000261465,0.00108969,0,0,0
0.000584293,0.000203732,0.000882898,0,0,0
0.000512999,0.000247753,0.000959626,0,0,0
0.000471565,0.000217189,0.000959481,0,0,0
0.000333164,0.000319279,0.000936927,0,0,0
0.000399107,0.00024568,0.000910284,0,0,0
0.000328942,0.000274275,0.000860735,0,0,0
0.000504824,0.000245545,0.00085823,0,0,0
0.000547726,0.000319188,0.000782705,0,0,0
0.000328048,0.00030377,0.000810751,0,0,0
0.000329201,0.00028944,0.000835913,0,0,0
0.000433271,0.000303441,0.000808978,0,0,0
0.000325003,0.000274573,0.000760357,0,0,0
0.000403317,0.000348487,0.000785,0,0,0
0.000288863,0.000289079,0.00073593,0,0,0
0.000288602,0.000317574,0.000836094,0,0,0
0.000509954,0.000305333,0.000708224,0,0,0
0.000211109,0.000373897,0.000736151,0,0,0
0.000254438,0.000303816,0.000761345,0,0,0
0.000247674,0.00033114,0.000760884,0,0,0
0.000324508,0.000347078,0.000735178,0,0,0
0.000395002,0.000347129,0.000734572,0,0,0
0.000286955,0.00036075,0.000710412,0,0,0
0.000433364,0.00036202,0.000759028,0,0,0
0.000324591,0.000289021,0.000785472,0,0,0
0.000357203,0.000346798,0.000734796,0,0,0
0.000250982,0.000274105,0.00076132,0,0,0
0.000219026,0.000332243,0.000761773,0,0,0
0.000357356,0.000317184,0.000734502,0,0,0
0.000396965,0.000361362,0.000759423,0,0,0
0.00032872,0.000304486,0.000760814,0,0,0
0.000359095,0.000390325,0.000760028,0,0,0
0.000254861,0.000362001,0.00081204,0,0,0
0.0004356,0.000362655,0.000809732,0,0,0
0.000361481,0.000405005,0.000885781,0,0,0
0.00025345,0.000303429,0.000861907,0,0,0
0.000291825,0.000289556,0.000937038,0,0,0
0.000289094,0.000346465,0.000886409,0,0,0
0.000213673,0.000331362,0.000912453,0,0,0
0.000327894,0.000362081,0.00091164,0,0,0
0.000364624,0.000333647,0.000911295,0,0,0
0.000295541,0.000377207,0.000887289,0,0,0
0.000397705,0.000332442,0.000960502,0,0,0
0.000367917,0.000334073,0.000961652,0,0,0
0.000291492,0.000405083,0.000987377,0,0,0
0.000361647,0.000361591,0.000910909,0,0,0
0.000223479,0.000434632,0.000988445,0,0,0
0.000292727,0.000405396,0.000987373,0,0,0
0.000253282,0.00037554,0.000937374,0,0,0
0.00021953,0.00037603,0.000938105,0,0,0
0.000216552,0.000403974,0.000937719,0,0,0
0.000221096,0.000289515,0.000988357,0,0,0
0.000111151,0.00044744,0.00101449,0,0,0
0.000253282,0.00037554,0.000937374,0,0,0
0.000326644,0.000419229,0.000961565,0,0,0
0.000367327,0.000348,0.000986423,0,0,0
0.000331009,0.000361984,0.000961653,0,0,0
0.000324917,0.000390024,0.000911254,0,0,0
0.000149692,0.000419194,0.000963948,0,0,0
0.00043369,0.000463023,0.00088481,0,0,0
0.000329868,0.00042025,0.000911707,0,0,0
0.000330266,0.000463262,0.000936512,0,0,0
0.000326973,0.000462837,0.000886155,0,0,0
0.000366007,0.000463481,0.000885927,0,0,0
0.000437643,0.000420228,0.000910013,0,0,0
0.000364018,0.000462772,0.000935781,0,0,0
0.00032597,0.00054895,0.000885836,0,0,0
0.000321609,0.00044706,0.000910818,0,0,0
0.000364018,0.000462772,0.000935781,0,0,0
0.000250962,0.00046166,0.000936972,0,0,0
0.000143834,0.000432263,0.000888091,0,0,0
0.000251867,0.000476102,0.000962171,0,0,0
0.000182457,0.000447356,0.000912978,0,0,0
0.000322761,0.000490467,0.000885774,0,0,0
0.000184444,0.000491725,0.000938466,0,0,0
0.000183031,0.00049089,0.000938127,0,0,0
0.000256243,0.000520532,0.000887269,0,0,0
0.000148126,0.00050571,0.000913696,0,0,0
0.000323995,0.00049078,0.00088577,0,0,0
0.000292217,0.00054944,0.000886567,0,0,0
0.000174293,0.000460045,0.000937599,0,0,0
0.000293785,0.000419264,0.000861477,0,0,0
-3.8305e-05,0.000474711,0.000865275,0,0,0
0.000363042,0.000535361,0.000860757,0,0,0
0.000322431,0.000461821,0.000935929,0,0,0
0.000289008,0.000490957,0.000886504,0,0,0
0.000283398,0.000475255,0.000810609,0,0,0
0.000250964,0.000418,0.00086163,0,0,0
3.45652e-05,0.00043177,0.000889357,0,0,0
0.000181729,0.000433436,0.000888123,0,0,0
0.000143669,0.000475677,0.000862962,0,0,0
0.00032342,0.000504984,0.000810415,0,0,0
0.000181153,0.00044764,0.000812768,0,0,0
0.000181138,0.0005051,0.000862688,0,0,0
0.000214564,0.000432305,0.000836771,0,0,0
0.000250305,0.000432524,0.000786187,0,0,0
0.000139389,0.000446167,0.000812573,0,0,0
0.000142436,0.000446667,0.000762371,0,0,0
0.000103484,0.000445703,0.000762687,0,0,0
0.000181073,0.0004043,0.000737338,0,0,0
0.000321774,0.000490422,0.000734939,0,0,0
0.000212669,0.000504252,0.000711127,0,0,0
0.000324986,0.000447508,0.000709865,0,0,0
0.000105131,0.000431567,0.000737567,0,0,0
0.000175778,0.000416966,0.000711414,0,0,0
0.000251212,0.000418268,0.00071079,0,0,0
0.000253599,0.000461989,0.000685742,0,0,0
0.000252199,0.000447353,0.000710824,0,0,0
0.000358916,0.00044754,0.000709478,0,0,0
0.000140873,0.000431786,0.000686983,0,0,0
0.000253024,0.000418455,0.000660593,0,0,0
0.000183132,0.000375715,0.000687103,0,0,0
0.000181319,0.000433265,0.000687094,0,0,0
0.00018231,0.000360953,0.000661992,0,0,0
0.000400258,0.000390827,0.000658978,0,0,0
0.000215732,0.000389554,0.000661211,0,0,0
0.000359989,0.00038987,0.00065921,0,0,0
0.000322283,0.000433155,0.000634737,0,0,0
0.000255262,0.000332655,0.000660908,0,0,0
0.000216553,0.000462054,0.000636116,0,0,0
0.000250722,0.000345718,0.000585134,0,0,0
0.000288531,0.000433645,0.000635468,0,0,0
0.00010003,0.000358597,0.00056147,0,0,0
0.000180237,0.000418301,0.000661552,0,0,0
0.00014104,0.000359674,0.000611515,0,0,0
0.000217213,0.000418833,0.000610963,0,0,0
0.000255014,0.000361427,0.000660945,0,0,0
0.0002523,0.000303138,0.000610602,0,0,0
0.000251311,0.000331791,0.000560362,0,0,0
0.000108028,0.000360283,0.000662523,0,0,0
0.000143113,0.000302326,0.000611956,0,0,0
0.000360578,0.000375943,0.000634438,0,0,0
0.000254766,0.000390199,0.000660983,0,0,0
0.000329378,0.000376739,0.000635249,0,0,0
0.000330944,0.000290224,0.000685501,0,0,0
0.00021978,0.000332639,0.000711924,0,0,0
0.00014938,0.000376205,0.000687834,0,0,0
7.80876e-05,0.000376566,0.00068922,0,0,0
0.000184285,0.000361385,0.000712265,0,0,0
0.000141876,0.000345673,0.000687302,0,0,0
0.000147486,0.000361375,0.000763197,0,0,0
0.000179263,0.000360453,0.000712193,0,0,0
0.000290507,0.000419115,0.000710994,0,0,0
0.000214909,0.000345753,0.000786901,0,0,0
0.000331012,0.000347364,0.000735509,0,0,0
0.000106052,0.000330811,0.000763052,0,0,0
0.000217543,0.000360702,0.000761815,0,0,0
0.000257742,0.000390953,0.000761964,0,0,0
0.00021359,0.000403497,0.000736612,0,0,0
-1.73744e-06,0.000388294,0.000814666,0,0,0
0.000252035,0.000418068,0.000761155,0,0,0
0.000181566,0.000433191,0.000787653,0,0,0
0.000249071,0.000432211,0.000786191,0,0,0
0.000141119,0.000431711,0.000787541,0,0,0
0.000176284,0.000432056,0.00078715,0,0,0
0.00025073,0.000462011,0.000736287,0,0,0
0.000136824,0.000459662,0.000787071,0,0,0
0.000248496,0.000388677,0.000761042,0,0,0
0.000280105,0.000474829,0.000760253,0,0,0
0.000175543,0.000431937,0.000736873,0,0,0
0.000245188,0.000445712,0.000760606,0,0,0
9.91218e-05,0.00040155,0.000737463,0,0,0
0.000142271,0.000417382,0.000812703,0,0,0
0.000247096,0.000374041,0.000786124,0,0,0
0.000255013,0.000390125,0.000761541,0,0,0
0.000212754,0.000388458,0.000811627,0,0,0
0.000214166,0.000389293,0.000811966,0,0,0
0.000211283,0.000460854,0.000786884,0,0,0
0.000136757,0.000387559,0.000762317,0,0,0
0.000217706,0.000418684,0.000812079,0,0,0
0.000144262,0.000360354,0.000813055,0,0,0
0.000151026,0.000333029,0.000813516,0,0,0
0.000252051,0.00030287,0.000761441,0,0,0
0.000181651,0.000346436,0.000737351,0,0,0
0.000251805,0.000273905,0.000811685,0,0,0
7.36168e-05,0.000331294,0.000763866,0,0,0
0.000216077,0.000273963,0.000762142,0,0,0
0.000217709,0.000317287,0.000786943,0,0,0
0.000147982,0.00028887,0.000788376,0,0,0
0.000157724,0.000233602,0.000789222,0,0,0
0.000148722,0.000288989,0.000838652,0,0,0
4.23485e-05,0.00024591,0.00086547,0,0,0
4.05254e-05,0.000230826,0.00078965,0,0,0
0.000259474,0.000261023,0.000837345,0,0,0
0.000112502,0.000260156,0.000738796,0,0,0
0.000222169,0.000245922,0.000812541,0,0,0
7.85728e-05,0.000202386,0.000789389,0,0,0
0.000112255,0.00023119,0.000789039,0,0,0
0.000261547,0.000218637,0.000812531,0,0,0
0.000152112,0.000246596,0.000813923,0,0,0
1.99874e-06,0.000201613,0.000790272,0,0,0
0.000187099,0.000246419,0.000813188,0,0,0
8.00806e-05,0.000189101,0.000815238,0,0,0
0.000221194,0.000260774,0.000787723,0,0,0
0.000186935,0.000217134,0.000863519,0,0,0
0.00018496,0.000231664,0.000787993,0,0,0
0.000189581,0.000276019,0.000813649,0,0,0
0.000221018,0.000202515,0.000837585,0,0,0
0.000259474,0.000261023,0.000837345,0,0,0
0.000149548,0.000202354,0.000838628,0,0,0
0.000188921,0.00031924,0.000838802,0,0,0
0.000258074,0.000304124,0.000812221,0,0,0
0.000184134,0.000318299,0.000788018,0,0,0
0.000219039,0.00030348,0.000812449,0,0,0
0.000149875,0.000274659,0.000863814,0,0,0
0.000253546,0.000303386,0.000761868,0,0,0
0.000256756,0.000304131,0.000812137,0,0,0
0.000112649,0.000375599,0.00083898,0,0,0
0.000183147,0.000289215,0.000787984,0,0,0
0.000180744,0.000360692,0.000812747,0,0,0
0.000254121,0.000346919,0.000787017,0,0,0
0.000329543,0.000304285,0.000811178,0,0,0
0.000216967,0.000345865,0.000837262,0,0,0
3.8215e-05,0.00038958,0.000865059,0,0,0
0.000254191,0.000317625,0.000786636,0,0,0
0.000251966,0.000389625,0.000811743,0,0,0
0.000211933,0.000315959,0.000836722,0,0,0
0.00025453,0.000433868,0.000787038,0,0,0
0.000219202,0.000361462,0.000862713,0,0,0
0.000141628,0.000345405,0.000838141,0,0,0
0.000144014,0.000389125,0.000813092,0,0,0
0.000292991,0.000333241,0.000811867,0,0,0
0.000247589,0.000402932,0.000836439,0,0,0
0.000255521,0.000303818,0.000812141,0,0,0
0.000107944,0.000374338,0.000788284,0,0,0
0.000317331,0.00037389,0.000785086,0,0,0
0.000290084,0.00033189,0.0008111,0,0,0
0.000175792,0.000330466,0.000812295,0,0,0
0.000144428,0.000316939,0.000838183,0,0,0
0.000257909,0.000289801,0.000837299,0,0,0
0.000216474,0.000316974,0.000786948,0,0,0
0.000290755,0.000303566,0.000911964,0,0,0
0.000360908,0.000317812,0.00078529,0,0,0
0.000216393,0.000244594,0.000862319,0,0,0
0.000183639,0.000318106,0.000838299,0,0,0
0.000257827,0.000275159,0.000862464,0,0,0
0.000219382,0.000260587,0.00083792,0,0,0
0.000219369,0.000274388,0.000812499,0,0,0
0.000184874,0.000318419,0.000838295,0,0,0
0.000222332,0.000303905,0.000862805,0,0,0
0.000219617,0.000245616,0.000812461,0,0,0
0.000329709,0.000260871,0.000836307,0,0,0
0.00032551,0.000274701,0.000861347,0,0,0
0.00022118,0.000260497,0.00088785,0,0,0
0.000291756,0.000332928,0.000811871,0,0,0
0.000143783,0.000302699,0.000813416,0,0,0
0.000142713,0.000258972,0.000838548,0,0,0
0.000221769,0.000304308,0.000812872,0,0,0
0.000290757,0.000259907,0.000836622,0,0,0
0.000216817,0.000274082,0.000812419,0,0,0
0.0002533,0.00027442,0.000812112,0,0,0
0.000179596,0.000215887,0.000812656,0,0,0
0.000146336,0.000245268,0.000863701,0,0,0
0.000184053,0.000245919,0.000863389,0,0,0
0.000254861,0.000347039,0.000837294,0,0,0
0.000148488,0.00030396,0.000864112,0,0,0
0.000362226,0.000317805,0.000785374,0,0,0
0.000293569,0.000275378,0.00081188,0,0,0
0.000249005,0.000302371,0.000811643,0,0,0
0.000255687,0.000260404,0.000837269,0,0,0
0.000290014,0.000303447,0.000861687,0,0,0
0.000112005,0.000303622,0.000864419,0,0,0
0.000219709,0.000332893,0.000863107,0,0,0
0.000328144,0.000289649,0.00083626,0,0,0
0.000179934,0.000332129,0.000813058,0,0,0
0.000360673,0.000332783,0.000810749,0,0,0
0.000284088,0.000288073,0.000836417,0,0,0
0.000287875,0.000288692,0.000836493,0,0,0
0.000438236,0.000304904,0.000860106,0,0,0
0.000285075,0.000317158,0.000836451,0,0,0
0.000509473,0.000276376,0.000809181,0,0,0
0.000293813,0.000348003,0.000836978,0,0,0
0.000216487,0.000303173,0.000812369,0,0,0
0.000431966,0.000332422,0.000809363,0,0,0
0.00021484,0.00031731,0.000837489,0,0,0
0.000288699,0.000259794,0.000786262,0,0,0
0.000288534,0.000303209,0.000761134,0,0,0
0.00014543,0.000288563,0.000788296,0,0,0
0.000394426,0.000332293,0.000810019,0,0,0
0.000365285,0.000304504,0.000760594,0,0,0
0.000396651,0.000260294,0.000784912,0,0,0
0.000439967,0.000261751,0.000734478,0,0,0
0.000362721,0.000260261,0.000785299,0,0,0
0.000180994,0.00028826,0.000737368,0,0,0
0.000435783,0.00021812,0.000709598,0,0,0
0.000219289,0.000231048,0.000737069,0,0,0
0.000362242,0.000202607,0.00078566,0,0,0
0.000364958,0.000232199,0.000735408,0,0,0
0.000437005,0.000232234,0.000684172,0,0,0
0.000402181,0.000232656,0.000785377,0,0,0
0.000246113,0.00024356,0.000760955,0,0,0
0.000252644,0.000187547,0.000711533,0,0,0
0.000363723,0.000231886,0.000735412,0,0,0
0.00043437,0.000217285,0.000709258,0,0,0
0.000398463,0.00026048,0.000734715,0,0,0
0.000404158,0.000189429,0.000760308,0,0,0
0.000404322,0.000189674,0.000860778,0,0,0
0.000215915,0.000158243,0.000762084,0,0,0
0.000324359,0.000245371,0.000760843,0,0,0
0.000189998,0.000102436,0.000813603,0,0,0
0.000441463,0.000204529,0.000785112,0,0,0
0.000257845,0.000116301,0.000787408,0,0,0
0.000219387,0.000101453,0.000862991,0,0,0
0.000325528,0.000115843,0.00078629,0,0,0
0.000253138,0.0001587,0.000812054,0,0,0
0.000361514,0.000188687,0.000760804,0,0,0
0.000329312,0.000217859,0.000811502,0,0,0
0.000473171,0.000175163,0.000784696,0,0,0
0.000507899,0.000159821,0.000808783,0,0,0
0.000256528,0.000116308,0.000787324,0,0,0
0.000403168,0.000261741,0.000785411,0,0,0
0.000261233,0.000117568,0.00083802,0,0,0
0.000259407,0.00018892,0.00081259,0,0,0
0.000364056,8.73197e-05,0.000835874,0,0,0
0.000257021,0.000145199,0.000837639,0,0,0
0.000364808,0.000131376,0.000861367,0,0,0
0.000333523,0.000247966,0.000761677,0,0,0
0.000217175,0.000173729,0.000787971,0,0,0
0.000250833,0.00018736,0.000761731,0,0,0
0.000222363,0.000131247,0.00081317,0,0,0
0.000292751,0.000101481,0.000811839,0,0,0
0.000295644,0.000131595,0.000761931,0,0,0
0.000221529,7.25484e-05,0.000812844,0,0,0
0.000183728,0.000129954,0.000762861,0,0,0
0.000256527,0.000174045,0.000737118,0,0,0
0.000327009,0.000145122,0.000736042,0,0,0
0.000258587,8.77229e-05,0.000737089,0,0,0
0.000334679,0.000132239,0.000761703,0,0,0
0.000255786,0.000173926,0.000686841,0,0,0
0.00018654,0.000145425,0.000738119,0,0,0
0.000296136,0.000218223,0.000762039,0,0,0
0.0003643,0.00023176,0.000685219,0,0,0
0.000220372,0.000246012,0.000762612,0,0,0
0.000212938,0.000186186,0.000761699,0,0,0
0.000251559,0.000259017,0.00073638,0,0,0
0.000361171,0.00023158,0.000735332,0,0,0
0.000327336,0.000217427,0.000761229,0,0,0
0.00021022,0.000229295,0.000736491,0,0,0
0.000395991,0.000303514,0.000810065,0,0,0
0.000320065,0.000215584,0.00081058,0,0,0
0.000287546,0.000274124,0.0007611,0,0,0
0.000323687,0.000259617,0.000785527,0,0,0
0.000253385,0.000187666,0.00076181,0,0,0
0.000177535,0.000302209,0.000812685,0,0,0
0.000430414,0.000361477,0.000709191,0,0,0
0.000393851,0.000288759,0.00078487,0,0,0
0.000359181,0.000288608,0.00073498,0,0,0
0.00025271,0.000288347,0.000836884,0,0,0
0.000247111,0.000316581,0.000736204,0,0,0
0.0004682,0.000361532,0.000809094,0,0,0
0.000357944,0.000331955,0.000810326,0,0,0
0.000250156,0.000345778,0.000786598,0,0,0
0.000216077,0.000273963,0.000762142,0,0,0
0.000362485,0.00033297,0.000760552,0,0,0
0.000395251,0.000303395,0.000759788,0,0,0
0.000248665,0.000243866,0.000761035,0,0,0
0.000326747,0.000231354,0.000786001,0,0,0
0.000253134,0.000317835,0.000786984,0,0,0
0.000359181,0.000288608,0.00073498,0,0,0
0.000182737,0.000260004,0.000737758,0,0,0
0.000436098,0.000246489,0.000759569,0,0,0
0.000218052,0.000274395,0.000812415,0,0,0
0.000326747,0.000231354,0.000786001,0,0,0
0.000328721,0.000289523,0.000786067,0,0,0
0.00028789,0.000231232,0.000786572,0,0,0
0.000325016,0.000303547,0.000760826,0,0,0
0.000291337,0.000173346,0.00073604,0,0,0
0.000214265,0.000273776,0.00081234,0,0,0
0.000252051,0.00030287,0.000761441,0,0,0
0.000218972,0.000231377,0.000787694,0,0,0
0.000249829,0.000273473,0.000761412,0,0,0
0.000257252,0.000231625,0.000837316,0,0,0
0.000364876,0.000217556,0.000760574,0,0,0
0.000249995,0.000230058,0.00078654,0,0,0
0.000402334,0.000203043,0.000785084,0,0,0
0.000364137,0.0001597,0.000760503,0,0,0
0.000107138,0.000244379,0.000763459,0,0,0
0.000324032,0.000173065,0.000735657,0,0,0
0.000218067,0.000216934,0.000762495,0,0,0
0.000250982,0.000259143,0.000786573,0,0,0
0.000327159,0.000216905,0.000760885,0,0,0
0.000180762,0.000201834,0.000737691,0,0,0
0.000328243,0.000203172,0.000685832,0,0,0
0.000332689,0.000189268,0.00076135,0,0,0
0.000291927,0.000159419,0.000711268,0,0,0
0.000397479,0.000129999,0.000709545,0,0,0
0.000396735,0.000231276,0.000684404,0,0,0
0.000292832,0.000173861,0.000736467,0,0,0
0.000327422,0.000130673,0.000710927,0,0,0
0.000219867,0.000173185,0.000737082,0,0,0
0.000255787,0.000116189,0.000737047,0,0,0
0.000255705,0.000101546,0.000762213,0,0,0
0.00029721,0.000102816,0.000761977,0,0,0
0.000331787,7.34284e-05,0.000711015,0,0,0
0.000291599,8.71136e-05,0.000686082,0,0,0
0.000365717,7.34605e-05,0.000710628,0,0,0
0.000260315,0.000116927,0.0007874,0,0,0
0.000368266,0.000175164,0.000735844,0,0,0
0.000365127,8.73873e-05,0.0007354,0,0,0
0.000363726,0.000130489,0.000710276,0,0,0
0.000404751,7.41049e-05,0.0007104,0,0,0
0.000254375,0.000115354,0.000736708,0,0,0
0.000289705,0.000130021,0.000711239,0,0,0
0.000256693,0.000130631,0.000762246,0,0,0
0.000292682,0.000102078,0.000711624,0,0,0
0.000292352,0.000116207,0.000736828,0,0,0
0.000184483,7.2613e-05,0.000763218,0,0,0
0.000441148,0.000161198,0.000760395,0,0,0
0.000222365,8.75871e-05,0.000737828,0,0,0
0.000152705,0.000131273,0.000764015,0,0,0
0.000187213,7.34414e-05,0.000763641,0,0,0
0.000218645,0.000159071,0.000762508,0,0,0
0.000222035,0.000116679,0.000737778,0,0,0
0.000218483,0.000101088,0.000712243,0,0,0
0.0002926,8.74354e-05,0.00073679,0,0,0
0.000218644,0.000216808,0.000712302,0,0,0
0.000366292,0.000116994,0.000735777,0,0,0
0.000324209,0.000173587,0.000736,0,0,0
0.000257435,0.000102053,0.000711928,0,0,0
0.000181915,0.000187505,0.000762853,0,0,0
0.000183492,0.000202663,0.000738114,0,0,0
0.000328739,0.000130666,0.000711011,0,0,0
0.000361915,0.000130302,0.000760473,0,0,0
0.000287796,0.000201692,0.000685721,0,0,0
0.000366865,0.000218265,0.00071072,0,0,0
0.000254124,0.000245522,0.000761881,0,0,0
0.000323454,0.000230928,0.000735644,0,0,0
0.000358948,0.000259919,0.000685097,0,0,0
0.000292254,0.000231725,0.000736454,0,0,0
0.000292088,0.000275139,0.000711326,0,0,0
0.000185123,0.000303724,0.000712709,0,0,0
0.000290688,0.000260503,0.000736408,0,0,0
0.000290923,0.000245532,0.000710949,0,0,0
0.000144195,0.00028825,0.0007883,0,0,0
0.000220866,0.000246206,0.000712331,0,0,0
0.000181584,0.000274333,0.000712596,0,0,0
0.000290838,0.000332287,0.000761251,0,0,0
0.000180169,0.000317158,0.000787599,0,0,0
0.000287711,0.000288447,0.000736022,0,0,0
0.00018116,0.000244846,0.000762496,0,0,0
0.000357946,0.000288295,0.000734984,0,0,0
0.000250816,0.000302557,0.000761445,0,0,0
0.000288038,0.000360752,0.000761209,0,0,0
0.000358343,0.000331307,0.000759789,0,0,0
0.000356875,0.000317267,0.000684657,0,0,0
0.000138982,0.000315559,0.00073721,0,0,0
0.00032385,0.000331677,0.000710243,0,0,0
0.000287887,0.000346706,0.00068616,0,0,0
0.000179524,0.000302918,0.000762831,0,0,0
0.000178356,0.000374709,0.00078759,0,0,0
0.000214924,0.000288292,0.000736981,0,0,0
0.000178946,0.000360782,0.000762818,0,0,0
0.000247427,0.00034495,0.000786175,0,0,0
0.000177287,0.000330981,0.000812722,0,0,0
0.000251394,0.000244694,0.000761458,0,0,0
0.000248263,0.000359989,0.00071116,0,0,0
0.000251653,0.000317596,0.00068643,0,0,0
0.000321051,0.000302406,0.000760407,0,0,0
0.00028871,0.000361468,0.000711271,0,0,0
0.000290771,0.000275146,0.000711242,0,0,0
0.000144689,0.000288444,0.000738019,0,0,0
0.000216899,0.000288725,0.000787254,0,0,0
0.000290028,0.000303724,0.000761561,0,0,0
0.000356793,0.000302625,0.000709823,0,0,0
0.0003979,0.000260883,0.000684781,0,0,0
0.000360676,0.000289123,0.000735408,0,0,0
0.000290276,0.000274952,0.000761523,0,0,0
0.000214595,0.000244684,0.00081239,0,0,0
0.000399958,0.000260996,0.000735142,0,0,0
0.000220125,0.000217047,0.000812856,0,0,0
0.000287618,0.00017213,0.000836179,0,0,0
0.000142276,0.000258247,0.000837773,0,0,0
7.49246e-05,0.000171877,0.000889147,0,0,0
0.000332167,0.000173558,0.00103714,0,0,0
7.48431e-05,7.04569e-05,0.00111532,0,0,0
0.000149795,0.000115502,0.00114019,0,0,0
0.000138984,8.42678e-05,0.00118943,0,0,0
0.000102267,9.89006e-05,0.0012152,0,0,0
0.000100706,-3.14552e-05,0.00124022,0,0,0
0.000179747,5.63789e-05,0.00128972,0,0,0
0.000219526,-4.42544e-05,0.00131463,0,0,0
0.00025963,-5.76199e-05,0.00133948,0,0,0
0.000150019,-8.79199e-05,0.00139073,0,0,0
0.000262842,-0.000129574,0.00146521,0,0,0
0.000369547,-0.000173324,0.00148865,0,0,0
0.000224138,-0.00015931,0.00146549,0,0,0
0.000148115,-0.000204423,0.00154109,0,0,0
7.77976e-05,-0.000203952,0.00154204,0,0,0
0.000113115,-0.00023322,0.00154135,0,0,0
7.79633e-05,-0.000247366,0.00156716,0,0,0
0.000189305,-0.000289259,0.00154109,0,0,0
7.85682e-05,-0.000318753,0.00149247,0,0,0
4.72955e-05,-0.000245004,0.00156901,0,0,0
-3.35702e-05,-0.000319224,0.00154428,0,0,0
0.000115911,-0.00030228,0.00156859,0,0,0
4.84896e-05,-0.000359357,0.00162034,0,0,0
0.000229406,-0.000358181,0.00161838,0,0,0
-2.21162e-05,-0.000444781,0.00167267,0,0,0
0.000125788,-0.000442995,0.00172172,0,0,0
0.000351432,-0.000468567,0.00182046,0,0,0
0.000311175,-0.000425588,0.00179591,0,0,0
0.000387693,-0.000482021,0.00189629,0,0,0
0.000280833,-0.000379959,0.00197374,0,0,0
0.00031445,-0.000480996,0.00199884,0,0,0
0.000427764,-0.000436022,0.00207342,0,0,0
0.000359533,-0.000521661,0.00212549,0,0,0
0.000505859,-0.000477297,0.00214906,0,0,0
0.000436227,-0.000533912,0.00230155,0,0,0
0.000441509,-0.000532778,0.00230206,0,0,0
0.000556496,-0.000544504,0.00242762,0,0,0
0.000523483,-0.000486157,0.00242842,0,0,0
0.000561627,-0.000586455,0.00250387,0,0,0
0.00078668,-0.000540362,0.00257718,0,0,0
0.000642849,-0.00058389,0.00260474,0,0,0
0.000791907,-0.000596434,0.00267895,0,0,0
0.000607228,-0.000583056,0.00270673,0,0,0
0.000841529,-0.000592425,0.00283116,0,0,0
0.000844767,-0.000620166,0.00283198,0,0,0
0.000880496,-0.000692923,0.00295698,0,0,0
0.000732451,-0.00066516,0.0030595,0,0,0
0.00096321,-0.000588446,0.00308341,0,0,0
0.00101159,-0.000657383,0.00315982,0,0,0
0.00111658,-0.000657703,0.00320876,0,0,0
0.00116181,-0.00071302,0.00330986,0,0,0
0.00102094,-0.000727031,0.00338773,0,0,0
0.00121744,-0.000693956,0.00348744,0,0,0
0.00129569,-0.000749882,0.00353753,0,0,0
0.0011177,-0.000836208,0.00364115,0,0,0
0.00123473,-0.000761321,0.00371619,0,0,0
0.00135431,-0.000845262,0.00381638,0,0,0
0.00160695,-0.000786262,0.00386372,0,0,0
0.00157897,-0.000857144,0.00389013,0,0,0
0.00147498,-0.000827804,0.0039925,0,0,0
0.00170004,-0.000883109,0.00404067,0,0,0
0.00156643,-0.000895553,0.00416931,0,0,0
0.00164517,-0.000922588,0.00426972,0,0,0
0.00164525,-0.00082151,0.00429494,0,0,0
0.00176343,-0.000920087,0.00442022,0,0,0
0.00187269,-0.000862134,0.00446887,0,0,0
0.00173792,-0.000860248,0.00457235,0,0,0
0.00178141,-0.000800874,0.00472345,0,0,0
0.00193319,-0.000856527,0.00482287,0,0,0
0.00175548,-0.00087192,0.00490035,0,0,0
0.00191113,-0.000825876,0.00502506,0,0,0
0.00184066,-0.000883453,0.00512702,0,0,0
0.00184625,-0.000752552,0.00520263,0,0,0
0.00188653,-0.000780358,0.00525307,0,0,0
0.0018554,-0.000780158,0.0053541,0,0,0
0.00179012,-0.000880217,0.00548125,0,0,0
0.00176608,-0.000835036,0.00560793,0,0,0
0.00187965,-0.000862494,0.00560713,0,0,0
0.00188285,-0.000775314,0.00570779,0,0,0
0.00188812,-0.000789418,0.00583367,0,0,0
0.00186483,-0.000874213,0.00588489,0,0,0
0.00182983,-0.000889275,0.006011,0,0,0
0.00195004,-0.000786041,0.00608547,0,0,0
0.00180536,-0.000787147,0.00623797,0,0,0
0.00188705,-0.000872261,0.00633812,0,0,0
0.00200844,-0.000898555,0.00643804,0,0,0
0.00190345,-0.00084084,0.00659029,0,0,0
0.00179772,-0.000884641,0.00666713,0,0,0
0.0018379,-0.00079693,0.0067172,0,0,0
0.00195195,-0.00089717,0.0068417,0,0,0
0.00181106,-0.000795983,0.00691928,0,0,0
0.00193063,-0.00091006,0.00701884,0,0,0
0.00186987,-0.000907983,0.00722148,0,0,0
0.00172329,-0.000894879,0.00729854,0,0,0
0.00173137,-0.00095125,0.00744989,0,0,0
0.00191697,-0.000978949,0.00749798,0,0,0
0.00184377,-0.000935957,0.00762465,0,0,0
0.0017396,-0.00090714,0.00772667,0,0,0
0.0017429,-0.000935754,0.00792783,0,0,0
0.00163922,-0.000964481,0.00802977,0,0,0
0.00171128,-0.00100729,0.00815476,0,0,0
0.00164162,-0.000934903,0.00828155,0,0,0
0.00171563,-0.00100741,0.00845617,0,0,0
0.00156923,-0.000993785,0.00853357,0,0,0
0.0015708,-0.0010516,0.00868442,0,0,0
0.00157203,-0.00102259,0.00878501,0,0,0
0.00158275,-0.00112175,0.00896148,0,0,0
0.00143668,-0.00106452,0.00896347,0,0,0
0.00147116,-0.00118152,0.00911326,0,0,0
0.00158604,-0.00112167,0.00926323,0,0,0
0.00140588,-0.00120923,0.00941635,0,0,0
0.0013367,-0.00128198,0.0094925,0,0,0
0.00130494,-0.00130982,0.00959418,0,0,0
0.00130685,-0.0013815,0.0096197,0,0,0
0.00116191,-0.0014842,0.00974663,0,0,0
0.00119887,-0.00145525,0.00989676,0,0,0
0.00101484,-0.00158676,0.00997438,0,0,0
0.00116397,-0.0016286,0.0100482,0,0,0
0.00105337,-0.00168799,0.0100994,0,0,0
0.0010187,-0.00171718,0.0102003,0,0,0
0.000983696,-0.00171728,0.0103012,0,0,0
0.00102247,-0.00184727,0.0104262,0,0,0
0.00076992,-0.00183424,0.0105549,0,0,0
0.00091813,-0.00187672,0.0105781,0,0,0
0.000988847,-0.00194965,0.0107024,0,0,0
0.000693558,-0.00202463,0.0107809,0,0,0
0.000696589,-0.00199571,0.0109314,0,0,0
0.000620829,-0.00212706,0.010957,0,0,0
0.000483308,-0.00211247,0.0111348,0,0,0
0.000510628,-0.00217247,0.0111839,0,0,0
0.000475037,-0.00215864,0.0113095,0,0,0
0.000485343,-0.00228701,0.0114357,0,0,0
0.000295521,-0.0022897,0.0115376,0,0,0
0.000294945,-0.00230453,0.0116131,0,0,0
0.000292614,-0.00232009,0.0116876,0,0,0
0.000113277,-0.00243654,0.0117905,0,0,0
0.000146946,-0.00246575,0.0119405,0,0,0
7.53957e-05,-0.00253829,0.0120169,0,0,0
0.000222298,-0.00250813,0.0121159,0,0,0
8.69894e-07,-0.00269836,0.0121934,0,0,0
-7.56238e-05,-0.0026558,0.0122697,0,0,0
-3.46831e-05,-0.00268316,0.0123703,0,0,0
-0.00017821,-0.00278503,0.0124976,0,0,0
-3.03046e-05,-0.00284099,0.0125968,0,0,0
-0.000250241,-0.00292931,0.0126999,0,0,0
-0.000208888,-0.00297112,0.0127754,0,0,0
-0.000247248,-0.00310149,0.0128514,0,0,0
-0.000246083,-0.00315866,0.0130528,0,0,0
-0.000461957,-0.00328866,0.0130812,0,0,0
-0.000389982,-0.0032734,0.0131559,0,0,0
-0.000279873,-0.00344605,0.0132555,0,0,0
-0.000314107,-0.00345955,0.0133319,0,0,0
-0.000460748,-0.00361906,0.0134593,0,0,0
-0.000459404,-0.00364667,0.0135103,0,0,0
-0.000497835,-0.00374774,0.0135866,0,0,0
-0.000386822,-0.00383324,0.0136359,0,0,0
-0.000419559,-0.00396171,0.0138132,0,0,0
-0.000418227,-0.00403325,0.0138889,0,0,0
-0.000382388,-0.00416263,0.0139643,0,0,0
-0.00056509,-0.00420655,0.0140925,0,0,0
-0.000492686,-0.00432095,0.0141424,0,0,0
-0.000378779,-0.00440538,0.0142926,0,0,0
-0.000491409,-0.00450744,0.0143696,0,0,0
-0.000626239,-0.00462043,0.0144732,0,0,0
-0.00055993,-0.00467809,0.0145733,0,0,0
-0.000629901,-0.00485094,0.0147254,0,0,0
-0.000666932,-0.00493738,0.0147766,0,0,0
-0.000523719,-0.00500839,0.0148506,0,0,0
-0.000630983,-0.00515241,0.0149531,0,0,0
-0.000589534,-0.00526609,0.0151044,0,0,0
-0.000371147,-0.00529323,0.0151523,0,0,0
-0.000548469,-0.00543657,0.0152562,0,0,0
-0.000551665,-0.0055379,0.0154324,0,0,0
-0.00043363,-0.00560686,0.0155579,0,0,0
-0.000586693,-0.0057242,0.0156602,0,0,0
-0.000656654,-0.00579538,0.0157373,0,0,0
-0.000468136,-0.00589327,0.0158618,0,0,0
-0.000653646,-0.00605407,0.0159896,0,0,0
-0.000441775,-0.00614039,0.0160873,0,0,0
-0.000577512,-0.00623913,0.0162664,0,0,0
-0.000651259,-0.00636867,0.0163936,0,0,0
-0.000651742,-0.00635396,0.0165699,0,0,0
-0.000573643,-0.00653941,0.0166454,0,0,0
-0.000574783,-0.00656792,0.0167964,0,0,0
-0.000750046,-0.00676889,0.0170009,0,0,0
-0.000682763,-0.00678367,0.0170756,0,0,0
-0.000606244,-0.00688287,0.0172009,0,0,0
-0.000527983,-0.0069526,0.0172764,0,0,0
-0.000676602,-0.00702611,0.017404,0,0,0
-0.000597436,-0.00713913,0.0175549,0,0,0
-0.000708668,-0.0071829,0.0176821,0,0,0
-0.000594758,-0.00736872,0.0178072,0,0,0
-0.000520477,-0.00738213,0.0179322,0,0,0
-0.000630379,-0.0074397,0.0180849,0,0,0
-0.000595188,-0.00748192,0.0181607,0,0,0
-0.000775171,-0.00762669,0.0183643,0,0,0
-0.00077672,-0.00774215,0.0185154,0,0,0
-0.000811541,-0.00784313,0.0185914,0,0,0
-0.00080714,-0.00785534,0.0187182,0,0,0
-0.000728328,-0.0079694,0.0188684,0,0,0
-0.000767335,-0.00807035,0.0189949,0,0,0
-0.000798439,-0.00814141,0.0190715,0,0,0
-0.000730013,-0.00827219,0.0192463,0,0,0
-0.000838611,-0.008301,0.0193484,0,0,0
-0.000905278,-0.0084295,0.0195261,0,0,0
-0.000868703,-0.00839962,0.0196266,0,0,0
-0.000940911,-0.00854442,0.0198286,0,0,0
-0.000827676,-0.00860052,0.019878,0,0,0
-0.00107947,-0.00870256,0.0200572,0,0,0
-0.000933542,-0.00875894,0.0201062,0,0,0
-0.000899376,-0.00886066,0.0202813,0,0,0
-0.00100492,-0.00887408,0.0204593,0,0,0
-0.00111203,-0.00888858,0.0205364,0,0,0
-0.00107481,-0.0090036,0.0206868,0,0,0
-0.00111037,-0.00913373,0.0208634,0,0,0
-0.00107611,-0.00911913,0.0209384,0,0,0
-0.00110664,-0.0092044,0.0210903,0,0,0
-0.00121095,-0.0093051,0.0212177,0,0,0
-0.00121111,-0.00930453,0.0213688,0,0,0
-0.00117397,-0.00937645,0.0214941,0,0,0
-0.00121004,-0.00942028,0.0216201,0,0,0
-0.00124327,-0.00951989,0.0216969,0,0,0
-0.00131614,-0.00956373,0.0218738,0,0,0
-0.00124185,-0.00967853,0.0219737,0,0,0
-0.00138545,-0.00964971,0.0221265,0,0,0
-0.00123646,-0.0097921,0.0222261,0,0,0
-0.00119379,-0.00979026,0.022377,0,0,0
-0.00141281,-0.00997934,0.0225056,0,0,0
-0.00133777,-0.0100501,0.022631,0,0,0
-0.00125821,-0.0100624,0.0227565,0,0,0
-0.00132884,-0.0101343,0.0228835,0,0,0
-0.00125603,-0.0102344,0.0230089,0,0,0
-0.00120874,-0.0101882,0.0231855,0,0,0
-0.00113345,-0.0103891,0.0232857,0,0,0
-0.00120548,-0.0103743,0.0234629,0,0,0
-0.00105492,-0.0104438,0.0234876,0,0,0
-0.00127354,-0.0104307,0.0236159,0,0,0
-0.000978893,-0.0105581,0.0236885,0,0,0
-0.00111316,-0.0106428,0.0239427,0,0,0
-0.00111017,-0.0106995,0.0239938,0,0,0
-0.00117924,-0.0106988,0.024146,0,0,0
-0.000951359,-0.0108251,0.0242703,0,0,0
-0.00102225,-0.0108108,0.0244473,0,0,0
-0.000830279,-0.0108939,0.0245971,0,0,0
-0.00104295,-0.010879,0.0246759,0,0,0
-0.000897606,-0.0109942,0.0248251,0,0,0
-0.0009609,-0.0109921,0.0249276,0,0,0
-0.000958746,-0.0110639,0.0250536,0,0,0
-0.00102939,-0.0110783,0.0252306,0,0,0
-0.000985805,-0.0111195,0.0253568,0,0,0
-0.00090675,-0.0111182,0.0255072,0,0,0
-0.00108533,-0.0112483,0.0256858,0,0,0
-0.000965927,-0.0111736,0.0257606,0,0,0
-0.000817609,-0.011259,0.02586,0,0,0
-0.000993987,-0.0112445,0.0260383,0,0,0
-0.000766448,-0.0112702,0.0260869,0,0,0
-0.000910556,-0.0112278,0.0262646,0,0,0
-0.000829264,-0.0112545,0.0263651,0,0,0
-0.000932277,-0.0112401,0.0264922,0,0,0
-0.000777374,-0.0113096,0.0266671,0,0,0
-0.000959821,-0.0112333,0.02725,0,0,0
-0.000919168,-0.0112046,0.0274,0,0,0
-0.00105123,-0.0111883,0.0275786,0,0,0
-0.000939243,-0.0112023,0.0277031,0,0,0
-0.000785591,-0.0111569,0.0278777,0,0,0
-0.00114378,-0.0111291,0.0280333,0,0,0
-0.000952985,-0.0110689,0.0281322,0,0,0
-0.000904635,-0.0110666,0.0282331,0,0,0
-0.000895414,-0.0111235,0.0283842,0,0,0
-0.000924807,-0.0109924,0.0284605,0,0,0
-0.000989774,-0.0110064,0.0285874,0,0,0
-0.000944717,-0.0110045,0.028638,0,0,0
-0.00111458,-0.0109458,0.0287919,0,0,0
-0.000957551,-0.0108854,0.0289916,0,0,0
-0.00110018,-0.0108573,0.0290437,0,0,0
-0.000980604,-0.0108261,0.0291436,0,0,0
-0.000892,-0.0107653,0.0292942,0,0,0
-0.000927741,-0.0107805,0.02937,0,0,0
-0.00114312,-0.0104419,0.0304562,0,0,0
-0.00123792,-0.0102968,0.0307593,0,0,0
-0.00129408,-0.0102228,0.0309368,0,0,0
-0.00125482,-0.0102524,0.0310365,0,0,0
-0.00131469,-0.0101643,0.0311887,0,0,0
-0.00138379,-0.010136,0.0312901,0,0,0
-0.00137664,-0.0100778,0.0313905,0,0,0
-0.00140191,-0.0100907,0.0315674,0,0,0
-0.00140071,-0.0100341,0.0316171,0,0,0
-0.00145834,-0.0100757,0.0317944,0,0,0
-0.00142237,-0.0099604,0.0318441,0,0,0
-0.00148174,-0.00992989,0.0319963,0,0,0
-0.00145039,-0.0099316,0.0320958,0,0,0
-0.00162109,-0.00991665,0.0322241,0,0,0
-0.00153784,-0.00982775,0.0323745,0,0,0
-0.00156823,-0.00987109,0.0324505,0,0,0
-0.00156445,-0.00988571,0.032576,0,0,0
-0.00163808,-0.00981447,0.0327023,0,0,0
-0.00151374,-0.00979745,0.0328271,0,0,0
-0.00176085,-0.00982669,0.0329814,0,0,0
-0.00168329,-0.00976813,0.0330812,0,0,0
-0.0017131,-0.00982568,0.0332325,0,0,0
-0.00170897,-0.00983925,0.0333586,0,0,0
-0.00159519,-0.00972283,0.0334074,0,0,0
-0.00173946,-0.00973838,0.0335348,0,0,0
-0.00165497,-0.00975056,0.0336601,0,0,0
-0.00176293,-0.00972237,0.0337621,0,0,0
-0.00190316,-0.00976607,0.0338895,0,0,0
-0.00171484,-0.00969155,0.0339632,0,0,0
-0.00168044,-0.0097505,0.0340627,0,0,0
-0.00170999,-0.00973514,0.0341389,0,0,0
-0.00177513,-0.00976341,0.0342909,0,0,0
-0.00181004,-0.00976383,0.0343919,0,0,0
-0.00194837,-0.00974878,0.0344192,0,0,0
-0.00194789,-0.00970608,0.0344441,0,0,0
-0.00198074,-0.00974889,0.0345202,0,0,0
-0.00194338,-0.00972058,0.0346198,0,0,0
-0.00179747,-0.00971951,0.0347187,0,0,0
-0.00186557,-0.00974854,0.0347697,0,0,0
-0.00198004,-0.00972179,0.0348712,0,0,0
-0.00208503,-0.00979417,0.0348977,0,0,0
-0.00186288,-0.00985082,0.0349451,0,0,0
-0.00219029,-0.00972285,0.0350241,0,0,0
-0.00215366,-0.0098676,0.0351239,0,0,0
-0.00208138,-0.00983888,0.0351225,0,0,0
-0.00229935,-0.00985523,0.0352002,0,0,0
-0.00222557,-0.00998513,0.0352244,0,0,0
-0.00234062,-0.00998695,0.0352754,0,0,0
-0.00241821,-0.0100033,0.035351,0,0,0
-0.00237869,-0.0101041,0.0353755,0,0,0
-0.00245768,-0.0100773,0.0354259,0,0,0
-0.00252832,-0.0101205,0.0355023,0,0,0
-0.00271237,-0.0101655,0.035479,0,0,0
-0.00272227,-0.0102837,0.0355283,0,0,0
-0.00268407,-0.0102254,0.0355276,0,0,0
-0.00261565,-0.0103271,0.0355517,0,0,0
-0.00287668,-0.0103585,0.0355544,0,0,0
-0.00305964,-0.0103449,0.035632,0,0,0
-0.00288336,-0.010432,0.0356292,0,0,0
-0.00295629,-0.0105616,0.0356555,0,0,0
-0.00299484,-0.0105773,0.0357308,0,0,0
-0.0030048,-0.010651,0.0356551,0,0,0
-0.00304203,-0.0106655,0.0357307,0,0,0
-0.00318907,-0.0107526,0.0357329,0,0,0
-0.00344755,-0.0107836,0.0357358,0,0,0
-0.00316636,-0.0108707,0.0357818,0,0,0
-0.003168,-0.0110008,0.0358067,0,0,0
-0.00346147,-0.0110316,0.0358103,0,0,0
-0.00327684,-0.0111886,0.0358334,0,0,0
-0.00336067,-0.0112487,0.0358337,0,0,0
-0.00350863,-0.0112927,0.0358606,0,0,0
-0.00354989,-0.0113805,0.035911,0,0,0
-0.00369612,-0.0113953,0.0359883,0,0,0
-0.00366467,-0.0115263,0.0359623,0,0,0
-0.00359567,-0.0115696,0.0359862,0,0,0
-0.00353169,-0.0116574,0.0359348,0,0,0
-0.00370813,-0.0117001,0.0360631,0,0,0
-0.00367693,-0.0118023,0.0360371,0,0,0
-0.00389858,-0.0118322,0.0361405,0,0,0
-0.00372816,-0.011964,0.036112,0,0,0
-0.00383503,-0.0119345,0.0361136,0,0,0
-0.00377269,-0.012066,0.0361374,0,0,0
-0.0038473,-0.0120525,0.0361632,0,0,0
-0.00388575,-0.0121248,0.0361888,0,0,0
-0.00392511,-0.0122555,0.0362141,0,0,0
-0.00399814,-0.0122269,0.0362151,0,0,0
-0.00407868,-0.0122865,0.0362657,0,0,0
-0.00411449,-0.0123439,0.0362663,0,0,0
-0.00416086,-0.0124185,0.0362911,0,0,0
-0.00412298,-0.0124613,0.036316,0,0,0
-0.00412627,-0.0124617,0.0362656,0,0,0
-0.00397491,-0.0125893,0.0363397,0,0,0
-0.0042348,-0.0125775,0.0364176,0,0,0
-0.00405816,-0.0126059,0.0363652,0,0,0
-0.00413467,-0.0126359,0.0363657,0,0,0
-0.00423947,-0.0127655,0.0364428,0,0,0
-0.00420843,-0.0127367,0.0364423,0,0,0
-0.00428327,-0.0128097,0.0364683,0,0,0
-0.00424647,-0.0128097,0.0364174,0,0,0
-0.00435877,-0.0129259,0.0364691,0,0,0
-0.00436504,-0.0129561,0.0364686,0,0,0
-0.00447497,-0.0129711,0.0365452,0,0,0
-0.00433086,-0.0129412,0.0365435,0,0,0
-0.00436815,-0.0129701,0.0365441,0,0,0
-0.00440919,-0.0131167,0.0365939,0,0,0
-0.00459304,-0.013175,0.0365964,0,0,0
-0.00448567,-0.0131167,0.036595,0,0,0
-0.00445043,-0.0132183,0.0366697,0,0,0
-0.00441543,-0.0131746,0.0366442,0,0,0
-0.00467713,-0.0132644,0.0367471,0,0,0
-0.00467695,-0.0132638,0.0367474,0,0,0
-0.00442516,-0.0132486,0.0367692,0,0,0
-0.00467496,-0.0132772,0.0368231,0,0,0
-0.00460762,-0.0133939,0.0368216,0,0,0
-0.00457386,-0.0134082,0.0368463,0,0,0
-0.00464853,-0.0135246,0.0368974,0,0,0
-0.00472239,-0.0134671,0.0369487,0,0,0
-0.00464679,-0.0136106,0.036948,0,0,0
-0.00468994,-0.013554,0.0370487,0,0,0
-0.00461475,-0.0136831,0.0370732,0,0,0
-0.00457867,-0.0136821,0.0371235,0,0,0
-0.00472143,-0.0137397,0.0371761,0,0,0
-0.00472605,-0.013784,0.0371504,0,0,0
-0.00494267,-0.0138854,0.0372292,0,0,0
-0.00480219,-0.0137981,0.0372776,0,0,0
-0.00487134,-0.0139422,0.0373293,0,0,0
-0.00472772,-0.0140138,0.0373527,0,0,0
-0.00473143,-0.0140575,0.0373777,0,0,0
-0.00476377,-0.0140275,0.0374794,0,0,0
-0.00469625,-0.0141437,0.0374782,0,0,0
-0.00480625,-0.0141294,0.0375552,0,0,0
-0.00458901,-0.0142436,0.0375529,0,0,0
-0.00476835,-0.014186,0.0376054,0,0,0
-0.00473788,-0.0142734,0.0376552,0,0,0
-0.00484219,-0.0143741,0.0377826,0,0,0
-0.00480645,-0.0144316,0.0377822,0,0,0
-0.00480594,-0.0143588,0.0378078,0,0,0
-0.00477168,-0.0145033,0.0379078,0,0,0
-0.00458757,-0.0144876,0.0379307,0,0,0
-0.00469468,-0.0145598,0.0380581,0,0,0
-0.0046195,-0.0145298,0.0380575,0,0,0
-0.00469194,-0.0146455,0.0381594,0,0,0
-0.00497691,-0.0146745,0.0382137,0,0,0
-0.00464942,-0.0146577,0.0382353,0,0,0
-0.0047974,-0.0146592,0.0383374,0,0,0
-0.00465238,-0.0147163,0.0383358,0,0,0
-0.00456779,-0.0147273,0.0383612,0,0,0
-0.00471831,-0.0147292,0.0384633,0,0,0
-0.00456835,-0.014756,0.0384621,0,0,0
-0.00457031,-0.0147415,0.0385378,0,0,0
-0.00456454,-0.0147692,0.0386389,0,0,0
-0.00452508,-0.0147968,0.0386389,0,0,0
-0.00448455,-0.014752,0.0387145,0,0,0
-0.00452028,-0.014781,0.0388157,0,0,0
-0.00458514,-0.0147938,0.0388428,0,0,0
-0.00458201,-0.01475,0.038868,0,0,0
-0.00446711,-0.014849,0.0389429,0,0,0
-0.00435818,-0.014733,0.038992,0,0,0
-0.00453405,-0.0147758,0.0390701,0,0,0
-0.00445111,-0.0148166,0.0391455,0,0,0
-0.00427029,-0.0148163,0.0391433,0,0,0
-0.00445111,-0.0147302,0.0391959,0,0,0
-0.00451779,-0.0147294,0.0392477,0,0,0
-0.00436751,-0.0147278,0.0392965,0,0,0
-0.00439937,-0.0146838,0.0393225,0,0,0
-0.00439789,-0.0146259,0.0393728,0,0,0
-0.00428418,-0.0146393,0.0394471,0,0,0
-0.00435614,-0.0146396,0.0394984,0,0,0
-0.00427371,-0.0146519,0.0395734,0,0,0
-0.00431268,-0.0145377,0.0395734,0,0,0
-0.00423114,-0.0145354,0.0396236,0,0,0
-0.00433919,-0.0144931,0.0397001,0,0,0
-0.00425833,-0.0145642,0.0397244,0,0,0
-0.00435969,-0.0144622,0.0397515,0,0,0
-0.00439666,-0.0144628,0.0398021,0,0,0
-0.00446758,-0.0144495,0.0398277,0,0,0
-0.00438836,-0.0144189,0.0399277,0,0,0
-0.00438541,-0.0143756,0.0399526,0,0,0
-0.00442678,-0.014349,0.0400024,0,0,0
-0.00442316,-0.0143777,0.0400529,0,0,0
-0.00452823,-0.0143633,0.0401297,0,0,0
-0.00452535,-0.0142907,0.0401549,0,0,0
-0.00445333,-0.0142771,0.0401784,0,0,0
-0.00455814,-0.0142476,0.0402304,0,0,0
